ply
format ascii 1.0
element vertex 1124
property float x
property float y
property float z
property uchar red
property uchar green
property uchar blue
end_header
-15.753699 58.793603 19.777088 255 255 204
-17.116784 59.693319 15.483001 255 255 204
-17.039695 59.424480 16.564419 255 255 204
-16.957416 59.137539 17.640791 255 255 204
-16.869972 58.832584 18.711789 255 255 204
-18.074200 59.118046 16.564419 255 255 204
-17.986926 58.832584 17.640791 255 255 204
32.318753 13.057624 53.674916 255 252 198
32.085944 13.619675 53.674916 255 252 198
31.843361 14.177578 53.674916 255 252 198
31.591078 14.731162 53.674916 255 252 198
30.737277 14.333028 54.275078 255 252 198
32.166352 15.688578 53.058405 255 252 198
31.329173 15.280258 53.674916 255 252 198
31.887650 16.247569 53.058405 255 252 198
31.057724 15.824701 53.674916 255 252 198
42.925151 31.186948 35.788346 255 249 190
48.937923 26.020755 -32.000000 255 255 204
49.423575 26.278981 -31.027816 255 255 204
48.476345 26.870877 -32.000000 255 255 204
48.957416 27.137539 -31.027816 255 255 204
62.355858 -12.120751 7.799638 255 255 204
62.682424 -11.052603 6.689822 255 255 204
62.557897 -11.030645 7.799638 255 255 204
62.414315 -11.005328 8.907078 255 255 204
62.971513 -9.973708 5.577968 255 255 204
62.865772 -9.956960 6.689822 255 255 204
62.740881 -9.937179 7.799638 255 255 204
63.135987 -8.873184 5.577968 255 255 204
63.029970 -8.858285 6.689822 255 255 204
56.648918 9.988733 28.055753 255 251 195
56.158089 9.902186 29.055392 255 251 195
55.650153 9.812623 30.046180 255 251 195
55.125265 9.720072 31.027816 255 251 195
54.583586 9.624559 32.000000 255 251 195
56.938007 11.067627 27.047569 255 251 195
56.465963 10.975871 28.055753 255 251 195
55.976718 10.880772 29.055392 255 251 195
55.470423 10.782358 30.046180 255 251 195
54.947231 10.680660 31.027816 255 251 195
54.407301 10.575708 32.000000 255 251 195
53.850798 10.467535 32.962437 255 251 195
53.277892 10.356173 33.914833 255 251 195
57.189267 12.155954 26.031145 255 251 195
56.736178 12.059647 27.047569 255 251 195
56.265807 11.959667 28.055753 255 251 195
55.778297 11.856043 29.055392 255 251 195
55.273796 11.748808 30.046180 255 251 195
54.752459 11.637994 31.027816 255 251 195
54.214443 11.523636 32.000000 255 251 195
53.659913 11.405767 32.962437 255 251 195
53.089037 11.284423 33.914833 255 251 195
56.968406 13.152193 26.031145 255 251 195
56.517067 13.047993 27.047569 255 251 195
56.048513 12.939819 28.055753 255 251 195
55.562885 12.827703 29.055392 255 251 195
55.060333 12.711679 30.046180 255 251 195
54.541009 12.591784 31.027816 255 251 195
54.005071 12.468053 32.000000 255 251 195
53.452682 12.340524 32.962437 255 251 195
52.884011 12.209236 33.914833 255 251 195
57.162363 14.252178 25.006792 255 251 195
56.730192 14.144426 26.031145 255 251 195
56.280741 14.032365 27.047569 255 251 195
55.814145 13.916029 28.055753 255 251 195
55.330549 13.795455 29.055392 255 251 195
54.830098 13.670679 30.046180 255 251 195
54.312945 13.541738 31.027816 255 251 195
53.779248 13.408672 32.000000 255 251 195
53.229169 13.271522 32.962437 255 251 195
52.662876 13.130330 33.914833 255 251 195
56.474698 15.132350 26.031145 255 251 195
56.027270 15.012462 27.047569 255 251 195
55.562776 14.888001 28.055753 255 251 195
55.081358 14.759005 29.055392 255 251 195
54.583161 14.625514 30.046180 255 251 195
54.068337 14.487567 31.027816 255 251 195
53.537043 14.345208 32.000000 255 251 195
52.989442 14.198478 32.962437 255 251 195
52.425700 14.047424 33.914833 255 251 195
56.202000 16.115664 26.031145 255 251 195
55.756733 15.987986 27.047569 255 251 195
55.294483 15.855438 28.055753 255 251 195
54.815388 15.718060 29.055392 255 251 195
54.319597 15.575894 30.046180 255 251 195
53.807259 15.428983 31.027816 255 251 195
53.278531 15.277373 32.000000 255 251 195
52.733574 15.121109 32.962437 255 251 195
56.338123 17.224293 25.006792 255 251 195
55.912183 17.094070 26.031145 255 251 195
55.469213 16.958640 27.047569 255 251 195
55.009345 16.818045 28.055753 255 251 195
54.532722 16.672326 29.055392 255 251 195
54.039487 16.521529 30.046180 255 251 195
53.529791 16.365700 31.027816 255 251 195
53.003790 16.204885 32.000000 255 251 195
52.461643 16.039134 32.962437 255 251 195
56.028937 18.204905 25.006792 255 251 195
55.605335 18.067269 26.031145 255 251 195
55.164795 17.924129 27.047569 255 251 195
54.707452 17.775529 28.055753 255 251 195
54.233444 17.621514 29.055392 255 251 195
53.742916 17.462132 30.046180 255 251 195
53.236017 17.297431 31.027816 255 251 195
52.712903 17.127460 32.000000 255 251 195
55.702684 19.179972 25.006792 255 251 195
55.281549 19.034964 26.031145 255 251 195
54.843574 18.884157 27.047569 255 251 195
54.388894 18.727598 28.055753 255 251 195
53.917646 18.565334 29.055392 255 251 195
53.429974 18.397416 30.046180 255 251 195
52.926027 18.223893 31.027816 255 251 195
52.405959 18.044819 32.000000 255 251 195
55.761141 20.295396 23.974822 255 251 195
55.359464 20.149197 25.006792 255 251 195
54.940923 19.996861 26.031145 255 251 195
54.505647 19.838433 27.047569 255 251 195
54.053769 19.673963 28.055753 255 251 195
53.585424 19.503499 29.055392 255 251 195
53.100758 19.327095 30.046180 255 251 195
52.599916 19.144804 31.027816 255 251 195
52.083052 18.956680 32.000000 255 251 195
51.001890 18.563170 33.914833 255 251 195
55.398445 21.265471 23.974822 255 251 195
54.999380 21.112284 25.006792 255 251 195
54.583562 20.952666 26.031145 255 251 195
54.151117 20.786666 27.047569 255 251 195
53.702178 20.614335 28.055753 255 251 195
53.236880 20.435724 29.055392 255 251 195
52.755366 20.250888 30.046180 255 251 195
52.257782 20.059883 31.027816 255 251 195
51.744279 19.862768 32.000000 255 251 195
51.215015 19.659602 32.962437 255 251 195
50.670151 19.450448 33.914833 255 251 195
55.398445 22.382425 22.935549 255 251 195
55.018874 22.229068 23.974822 255 251 195
54.622543 22.068940 25.006792 255 251 195
54.209574 21.902090 26.031145 255 251 195
53.780093 21.728568 27.047569 255 251 195
53.334229 21.548427 28.055753 255 251 195
52.872119 21.361723 29.055392 255 251 195
52.393904 21.168511 30.046180 255 251 195
51.899729 20.968852 31.027816 255 251 195
51.389745 20.762805 32.000000 255 251 195
50.864108 20.550433 32.962437 255 251 195
50.322976 20.331802 33.914833 255 251 195
54.999380 23.345852 22.935549 255 251 195
54.622543 23.185894 23.974822 255 251 195
54.229068 23.018874 25.006792 255 251 195
53.819074 22.844841 26.031145 255 251 195
53.392686 22.663851 27.047569 255 251 195
52.950034 22.475956 28.055753 255 251 195
52.491253 22.281215 29.055392 255 251 195
52.016483 22.079687 30.046180 255 251 195
51.525868 21.871433 31.027816 255 251 195
51.019558 21.656517 32.000000 255 251 195
50.497706 21.435005 32.962437 255 251 195
49.960473 21.206963 33.914833 255 251 195
54.940923 24.461275 21.889289 255 251 195
54.583562 24.302168 22.935549 255 251 195
54.209574 24.135658 23.974822 255 251 195
53.819074 23.961795 25.006792 255 251 195
53.412179 23.780634 26.031145 255 251 195
52.989015 23.592230 27.047569 255 251 195
52.549710 23.396638 28.055753 255 251 195
52.094398 23.193920 29.055392 255 251 195
51.623217 22.984137 30.046180 255 251 195
51.136311 22.767353 31.027816 255 251 195
50.633829 22.543633 32.000000 255 251 195
50.115923 22.313046 32.962437 255 251 195
49.582751 22.075663 33.914833 255 251 195
54.505647 25.416401 21.889289 255 251 195
54.151117 25.251081 22.935549 255 251 195
53.780093 25.078069 23.974822 255 251 195
53.392686 24.897418 25.006792 255 251 195
51.681674 24.099560 29.055392 255 251 195
51.214226 23.881586 30.046180 255 251 195
33.182376 13.406550 53.058405 255 250 192
33.790713 14.343307 52.425731 255 250 192
32.943346 13.983621 53.058405 255 250 192
34.365987 15.300723 51.777088 255 250 192
33.535241 14.930851 52.425731 255 250 192
32.694281 14.556432 53.058405 255 250 192
33.269555 15.513848 52.425731 255 250 192
32.435257 15.124809 53.058405 255 250 192
32.993734 16.092119 52.425731 255 250 192
40.913047 4.300134 49.026844 255 254 202
45.093254 17.309678 41.987778 255 252 198
44.402270 17.044434 42.824359 255 252 198
44.098041 17.816765 42.824359 255 252 198
42.057575 40.614528 -26.031145 255 255 204
42.377970 40.923930 -25.006792 255 255 204
42.685456 41.220866 -23.974822 255 255 204
42.979940 41.505245 -22.935549 255 255 204
41.014808 41.014808 -27.047569 255 255 204
41.342348 41.342348 -26.031145 255 255 204
41.657294 41.657294 -25.006792 255 255 204
41.959551 41.959551 -23.974822 255 255 204
42.249027 42.249027 -22.935549 255 255 204
42.525634 42.525634 -21.889289 255 255 204
42.789286 42.789286 -20.836362 255 255 204
43.039905 43.039905 -19.777088 255 255 204
43.277413 43.277413 -18.711789 255 255 204
40.292755 41.724369 -27.047569 255 255 204
40.614528 42.057575 -26.031145 255 255 204
40.923930 42.377970 -25.006792 255 255 204
41.220866 42.685456 -23.974822 255 255 204
41.505245 42.979940 -22.935549 255 255 204
41.776982 43.261331 -21.889289 255 255 204
42.035993 43.529545 -20.836362 255 255 204
42.282200 43.784499 -19.777088 255 255 204
42.515527 44.026117 -18.711789 255 255 204
42.735903 44.254323 -17.640791 255 255 204
39.558427 42.421220 -27.047569 255 255 204
39.874336 42.759991 -26.031145 255 255 204
40.178099 43.085736 -25.006792 255 255 204
40.469624 43.398358 -23.974822 255 255 204
40.748820 43.697760 -22.935549 255 255 204
41.015605 43.983851 -21.889289 255 255 204
41.269896 44.256545 -20.836362 255 255 204
41.511615 44.515757 -19.777088 255 255 204
41.740690 44.761409 -18.711789 255 255 204
41.957050 44.993427 -17.640791 255 255 204
39.706054 44.098041 -23.974822 255 255 204
39.979983 44.402270 -22.935549 255 255 204
40.241734 44.692973 -21.889289 255 255 204
40.491227 44.970063 -20.836362 255 255 204
40.728385 45.233455 -19.777088 255 255 204
40.953138 45.483068 -18.711789 255 255 204
41.165416 45.718826 -17.640791 255 255 204
41.365154 45.940658 -16.564419 255 255 204
41.552292 46.148496 -15.483001 255 255 204
39.700224 45.669883 -20.836362 255 255 204
39.932750 45.937374 -19.777088 255 255 204
40.153112 46.190871 -18.711789 255 255 204
40.361243 46.430298 -17.640791 255 255 204
40.557079 46.655582 -16.564419 255 255 204
40.740561 46.866655 -15.483001 255 255 204
40.911634 47.063451 -14.396867 255 255 204
39.736650 47.356295 -16.564419 255 255 204
39.916421 47.570538 -15.483001 255 255 204
51.482343 34.725279 -15.483001 255 255 204
51.698521 34.871093 -14.396867 255 255 204
51.898951 35.006285 -13.306348 255 255 204
52.083572 35.130813 -12.211776 255 255 204
52.252328 35.244640 -11.113483 255 255 204
50.394847 35.286852 -17.640791 255 255 204
50.639367 35.458067 -16.564419 255 255 204
50.868463 35.618481 -15.483001 255 255 204
-12.182028 62.671103 4.464414 255 253 201
-12.165306 62.585075 5.577968 255 253 201
-12.144878 62.479983 6.689822 255 253 201
-13.288112 62.515653 3.349501 255 253 201
-13.273935 62.448952 4.464414 255 253 201
-13.255714 62.363229 5.577968 255 253 201
-13.233455 62.258509 6.689822 255 253 201
-14.388097 62.321696 2.233568 255 253 201
-14.377137 62.274222 3.349501 255 253 201
-14.361797 62.207779 4.464414 255 253 201
-14.342083 62.122387 5.577968 255 253 201
-15.473569 62.061097 2.233568 255 253 201
-23.960217 59.303619 2.233568 255 253 201
-24.991559 58.876423 2.233568 255 253 201
-24.972521 58.831573 3.349501 255 253 201
-26.015288 58.431293 2.233568 255 253 201
-25.995470 58.386782 3.349501 255 253 201
-25.967735 58.324487 4.464414 255 253 201
-27.010501 57.924206 3.349501 255 253 201
-26.981682 57.862404 4.464414 255 253 201
-27.948993 57.303927 5.577968 255 253 201
-28.944827 56.807422 5.577968 255 253 201
-28.896224 56.712032 6.689822 255 253 201
-29.931845 56.293613 5.577968 255 253 201
-29.881584 56.199086 6.689822 255 253 201
60.741916 -12.911093 15.483001 255 255 204
61.213961 -11.898789 14.396867 255 255 204
60.957994 -11.849034 15.483001 255 255 204
60.683459 -11.795670 16.564419 255 255 204
61.412300 -10.828646 14.396867 255 255 204
61.155504 -10.783365 15.483001 255 255 204
60.880080 -10.734801 16.564419 255 255 204
61.591933 -9.755204 14.396867 255 255 204
61.334386 -9.714412 15.483001 255 255 204
61.058155 -9.670662 16.564419 255 255 204
62.212740 -8.743430 12.211776 255 255 204
61.992213 -8.712437 13.306348 255 255 204
61.752804 -8.678791 14.396867 255 255 204
61.494584 -8.642500 15.483001 255 255 204
61.217632 -8.603577 16.564419 255 255 204
62.355858 -7.656337 12.211776 255 255 204
62.134825 -7.629197 13.306348 255 255 204
61.894865 -7.599734 14.396867 255 255 204
61.636051 -7.567955 15.483001 255 255 204
61.358462 -7.533872 16.564419 255 255 204
62.479983 -6.566911 12.211776 255 255 204
62.258509 -6.543633 13.306348 255 255 204
62.018071 -6.518362 14.396867 255 255 204
61.758742 -6.491105 15.483001 255 255 204
61.480601 -6.461872 16.564419 255 255 204
59.421835 -6.245487 22.935549 255 255 204
59.014697 -6.202695 23.974822 255 255 204
58.589583 -6.158013 25.006792 255 255 204
58.146621 -6.111456 26.031145 255 255 204
62.363229 -5.456076 13.306348 255 255 204
62.122387 -5.435005 14.396867 255 255 204
61.862621 -5.412278 15.483001 255 255 204
61.584012 -5.387903 16.564419 255 255 204
61.286644 -5.361887 17.640791 255 255 204
60.970607 -5.334237 18.711789 255 255 204
60.635997 -5.304962 19.777088 255 255 204
60.282918 -5.274072 20.836362 255 255 204
59.911476 -5.241575 21.889289 255 255 204
59.521784 -5.207481 22.935549 255 255 204
59.113961 -5.171801 23.974822 255 255 204
58.688131 -5.134546 25.006792 255 255 204
58.244425 -5.095727 26.031145 255 255 204
61.947657 -4.331802 15.483001 255 255 204
61.668664 -4.312293 16.564419 255 255 204
61.370887 -4.291470 17.640791 255 255 204
61.054416 -4.269341 18.711789 255 255 204
60.719347 -4.245910 19.777088 255 255 204
60.365782 -4.221187 20.836362 255 255 204
59.993829 -4.195177 21.889289 255 255 204
59.603601 -4.167890 22.935549 255 255 204
59.195218 -4.139333 23.974822 255 255 204
58.768803 -4.109515 25.006792 255 255 204
58.324487 -4.078445 26.031145 255 255 204
62.013822 -3.250007 15.483001 255 255 204
61.734532 -3.235370 16.564419 255 255 204
61.436436 -3.219747 17.640791 255 255 204
61.119627 -3.203144 18.711789 255 255 204
60.784200 -3.185565 19.777088 255 255 204
60.430258 -3.167016 20.836362 255 255 204
60.057908 -3.147502 21.889289 255 255 204
59.667263 -3.127029 22.935549 255 255 204
59.258444 -3.105603 23.974822 255 255 204
58.831573 -3.083232 25.006792 255 255 204
61.781594 -2.157461 16.564419 255 255 204
61.483272 -2.147043 17.640791 255 255 204
61.166221 -2.135971 18.711789 255 255 204
60.830538 -2.124249 19.777088 255 255 204
60.476326 -2.111880 20.836362 255 255 204
60.103692 -2.098867 21.889289 255 255 204
59.712750 -2.085215 22.935549 255 255 204
59.303619 -2.070928 23.974822 255 255 204
58.876423 -2.056010 25.006792 255 255 204
61.809838 -1.078895 16.564419 255 255 204
61.511379 -1.073685 17.640791 255 255 204
61.194183 -1.068148 18.711789 255 255 204
60.858347 -1.062286 19.777088 255 255 204
60.503972 -1.056101 20.836362 255 255 204
60.131168 -1.049593 21.889289 255 255 204
59.740047 -1.042766 22.935549 255 255 204
59.330729 -1.035622 23.974822 255 255 204
61.819253 0.000000 16.564419 255 255 204
61.520749 0.000000 17.640791 255 255 204
61.203504 0.000000 18.711789 255 255 204
60.867617 0.000000 19.777088 255 255 204
60.513189 0.000000 20.836362 255 255 204
60.140328 0.000000 21.889289 255 255 204
59.749147 0.000000 22.935549 255 255 204
61.511379 1.073685 17.640791 255 255 204
61.194183 1.068148 18.711789 255 255 204
60.858347 1.062286 19.777088 255 255 204
60.503972 1.056101 20.836362 255 255 204
60.131168 1.049593 21.889289 255 255 204
59.740047 1.042766 22.935549 255 255 204
61.483272 2.147043 17.640791 255 255 204
61.166221 2.135971 18.711789 255 255 204
60.830538 2.124249 19.777088 255 255 204
60.476326 2.111880 20.836362 255 255 204
60.103692 2.098867 21.889289 255 255 204
61.436436 3.219747 17.640791 255 255 204
61.119627 3.203144 18.711789 255 255 204
60.784200 3.185565 19.777088 255 255 204
60.430258 3.167016 20.836362 255 255 204
61.054416 4.269341 18.711789 255 255 204
60.719347 4.245910 19.777088 255 255 204
60.365782 4.221187 20.836362 255 255 204
57.138394 -17.468960 22.935549 255 255 204
58.832584 -16.869972 18.711789 255 255 204
58.509709 -16.777389 19.777088 255 255 204
58.169011 -16.679695 20.836362 255 255 204
57.810593 -16.576921 21.889289 255 255 204
57.434567 -16.469097 22.935549 255 255 204
59.118046 -15.840633 18.711789 255 255 204
58.793603 -15.753699 19.777088 255 255 204
58.451252 -15.661966 20.836362 255 255 204
58.091096 -15.565462 21.889289 255 255 204
57.713244 -15.464217 22.935549 255 255 204
59.385499 -14.806468 18.711789 255 255 204
59.059589 -14.725209 19.777088 255 255 204
58.715689 -14.639465 20.836362 255 255 204
58.353903 -14.549262 21.889289 255 255 204
57.974342 -14.454627 22.935549 255 255 204
59.943976 -13.839157 17.640791 255 255 204
59.634863 -13.767793 18.711789 255 255 204
59.307584 -13.692235 19.777088 255 255 204
58.962240 -13.612506 20.836362 255 255 204
58.598935 -13.528630 21.889289 255 255 204
58.217781 -13.440634 22.935549 255 255 204
57.818892 -13.348543 23.974822 255 255 204
57.402392 -13.252386 25.006792 255 255 204
60.468354 -12.852945 16.564419 255 255 204
60.176373 -12.790883 17.640791 255 255 204
59.866061 -12.724924 18.711789 255 255 204
59.537514 -12.655089 19.777088 255 255 204
59.190830 -12.581399 20.836362 255 255 204
58.826117 -12.503877 21.889289 255 255 204
58.443485 -12.422546 22.935549 255 255 204
58.043050 -12.337431 23.974822 255 255 204
57.624935 -12.248558 25.006792 255 255 204
57.189267 -12.155954 26.031145 255 255 204
56.736178 -12.059647 27.047569 255 255 204
56.265807 -11.959667 28.055753 255 255 204
60.390439 -11.738712 17.640791 255 255 204
60.079024 -11.678179 18.711789 255 255 204
59.749307 -11.614089 19.777088 255 255 204
59.401391 -11.546461 20.836362 255 255 204
59.035381 -11.475316 21.889289 255 255 204
58.651387 -11.400675 22.935549 255 255 204
58.249528 -11.322561 23.974822 255 255 204
57.829926 -11.240999 25.006792 255 255 204
57.392707 -11.156012 26.031145 255 255 204
56.938007 -11.067627 27.047569 255 255 204
60.586110 -10.682966 17.640791 255 255 204
60.273686 -10.627877 18.711789 255 255 204
59.942901 -10.569551 19.777088 255 255 204
59.593858 -10.508005 20.836362 255 255 204
59.226661 -10.443258 21.889289 255 255 204
58.841423 -10.375331 22.935549 255 255 204
58.438262 -10.304242 23.974822 255 255 204
58.017300 -10.230015 25.006792 255 255 204
57.578666 -10.152672 26.031145 255 255 204
57.122492 -10.072237 27.047569 255 255 204
60.763326 -9.623965 17.640791 255 255 204
60.449988 -9.574337 18.711789 255 255 204
60.118236 -9.521793 19.777088 255 255 204
59.768171 -9.466348 20.836362 255 255 204
59.399900 -9.408020 21.889289 255 255 204
59.013536 -9.346826 22.935549 255 255 204
58.609196 -9.282785 23.974822 255 255 204
58.187002 -9.215916 25.006792 255 255 204
57.747085 -9.146240 26.031145 255 255 204
57.289577 -9.073778 27.047569 255 255 204
60.922033 -8.562033 17.640791 255 255 204
60.607876 -8.517881 18.711789 255 255 204
60.275258 -8.471135 19.777088 255 255 204
59.924279 -8.421808 20.836362 255 255 204
59.555046 -8.369916 21.889289 255 255 204
59.167673 -8.315474 22.935549 255 255 204
58.762276 -8.258499 23.974822 255 255 204
58.338980 -8.199009 25.006792 255 255 204
57.897913 -8.137021 26.031145 255 255 204
57.439210 -8.072555 27.047569 255 255 204
56.963011 -8.005629 28.055753 255 255 204
61.062182 -7.497493 17.640791 255 255 204
60.747303 -7.458831 18.711789 255 255 204
60.413919 -7.417897 19.777088 255 255 204
60.062133 -7.374703 20.836362 255 255 204
59.692051 -7.329262 21.889289 255 255 204
59.303786 -7.281589 22.935549 255 255 204
58.897457 -7.231698 23.974822 255 255 204
58.473187 -7.179605 25.006792 255 255 204
58.031106 -7.125324 26.031145 255 255 204
57.571348 -7.068873 27.047569 255 255 204
57.094053 -7.010268 28.055753 255 255 204
61.183731 -6.430669 17.640791 255 255 204
60.868225 -6.397508 18.711789 255 255 204
60.534178 -6.362398 19.777088 255 255 204
60.181691 -6.325351 20.836362 255 255 204
59.810873 -6.286376 21.889289 255 255 204
57.685948 -6.063037 27.047569 255 255 204
57.782977 -5.055355 27.047569 255 255 204
-24.048474 -49.306679 32.962437 254 230 145
-23.792628 -48.782117 33.914833 254 230 145
-23.423882 -50.232676 32.000000 254 230 145
-23.184291 -49.718874 32.962437 254 230 145
-22.937639 -49.189926 33.914833 254 230 145
-23.193920 -52.094398 29.055392 254 230 145
-22.984137 -51.623217 30.046180 254 230 145
-22.767353 -51.136311 31.027816 254 230 145
-22.075663 -49.582751 33.914833 254 230 145
-22.281215 -52.491253 29.055392 254 230 145
-22.079687 -52.016483 30.046180 254 230 145
-21.435005 -50.497706 32.962437 254 230 145
-21.728568 -53.780093 27.047569 254 230 145
-21.548427 -53.334229 28.055753 254 230 145
-20.968852 -51.899729 31.027816 254 230 145
-20.762805 -51.389745 32.000000 254 230 145
-20.550433 -50.864108 32.962437 254 230 145
-20.786666 -54.151117 27.047569 254 230 145
-20.250888 -52.755366 30.046180 254 230 145
-20.059883 -52.257782 31.027816 254 230 145
-19.862768 -51.744279 32.000000 254 230 145
-19.659602 -51.215015 32.962437 254 230 145
-20.149197 -55.359464 25.006792 254 230 145
-19.996861 -54.940923 26.031145 254 230 145
-19.327095 -53.100758 30.046180 254 230 145
-19.144804 -52.599916 31.027816 254 230 145
-18.956680 -52.083052 32.000000 254 230 145
-18.762783 -51.550322 32.962437 254 230 145
-18.727598 -54.388894 28.055753 254 230 145
-18.565334 -53.917646 29.055392 254 230 145
-18.397416 -53.429974 30.046180 254 230 145
-18.223893 -52.926027 31.027816 254 230 145
-18.044819 -52.405959 32.000000 254 230 145
-17.860248 -51.869927 32.962437 254 230 145
-17.924129 -55.164795 27.047569 254 230 145
-17.775529 -54.707452 28.055753 254 230 145
-17.621514 -54.233444 29.055392 254 230 145
-17.462132 -53.742916 30.046180 254 230 145
-17.297431 -53.236017 31.027816 254 230 145
-17.127460 -52.712903 32.000000 254 230 145
-16.952273 -52.173731 32.962437 254 230 145
-17.094070 -55.912183 26.031145 254 230 145
-16.958640 -55.469213 27.047569 254 230 145
-16.818045 -55.009345 28.055753 254 230 145
-16.672326 -54.532722 29.055392 254 230 145
-16.521529 -54.039487 30.046180 254 230 145
-16.365700 -53.529791 31.027816 254 230 145
-16.204885 -53.003790 32.000000 254 230 145
-16.039134 -52.461643 32.962437 254 230 145
-16.238434 -56.630148 25.006792 254 230 145
-16.115664 -56.202000 26.031145 254 230 145
-15.987986 -55.756733 27.047569 254 230 145
-15.855438 -55.294483 28.055753 254 230 145
-15.718060 -54.815388 29.055392 254 230 145
-15.575894 -54.319597 30.046180 254 230 145
-15.428983 -53.807259 31.027816 254 230 145
-15.277373 -53.278531 32.000000 254 230 145
-15.121109 -52.733574 32.962437 254 230 145
-15.565462 -58.091096 21.889289 254 230 145
-15.464217 -57.713244 22.935549 254 230 145
-15.358262 -57.317813 23.974822 254 230 145
-15.247628 -56.904922 25.006792 254 230 145
-15.132350 -56.474698 26.031145 254 230 145
-15.012462 -56.027270 27.047569 254 230 145
-14.888001 -55.562776 28.055753 254 230 145
-14.759005 -55.081358 29.055392 254 230 145
-14.625514 -54.583161 30.046180 254 230 145
-14.487567 -54.068337 31.027816 254 230 145
-14.345208 -53.537043 32.000000 254 230 145
-14.639465 -58.715689 20.836362 254 230 145
-14.549262 -58.353903 21.889289 254 230 145
-14.454627 -57.974342 22.935549 254 230 145
-14.355589 -57.577122 23.974822 254 230 145
-14.252178 -57.162363 25.006792 254 230 145
-14.144426 -56.730192 26.031145 254 230 145
-14.032365 -56.280741 27.047569 254 230 145
-13.916029 -55.814145 28.055753 254 230 145
-13.795455 -55.330549 29.055392 254 230 145
-13.670679 -54.830098 30.046180 254 230 145
-13.541738 -54.312945 31.027816 254 230 145
-13.612506 -58.962240 20.836362 254 230 145
-13.528630 -58.598935 21.889289 254 230 145
-13.440634 -58.217781 22.935549 254 230 145
-13.348543 -57.818892 23.974822 254 230 145
-13.252386 -57.402392 25.006792 254 230 145
-13.152193 -56.968406 26.031145 254 230 145
-13.047993 -56.517067 27.047569 254 230 145
-12.939819 -56.048513 28.055753 254 230 145
-12.827703 -55.562885 29.055392 254 230 145
-12.711679 -55.060333 30.046180 254 230 145
-12.591784 -54.541009 31.027816 254 230 145
-12.655089 -59.537514 19.777088 254 230 145
-12.581399 -59.190830 20.836362 254 230 145
-12.503877 -58.826117 21.889289 254 230 145
-12.422546 -58.443485 22.935549 254 230 145
-12.337431 -58.043050 23.974822 254 230 145
-12.248558 -57.624935 25.006792 254 230 145
-12.155954 -57.189267 26.031145 254 230 145
-12.059647 -56.736178 27.047569 254 230 145
-11.959667 -56.265807 28.055753 254 230 145
-11.856043 -55.778297 29.055392 254 230 145
-11.748808 -55.273796 30.046180 254 230 145
-11.637994 -54.752459 31.027816 254 230 145
-11.614089 -59.749307 19.777088 254 230 145
-11.546461 -59.401391 20.836362 254 230 145
-11.475316 -59.035381 21.889289 254 230 145
-11.400675 -58.651387 22.935549 254 230 145
-11.322561 -58.249528 23.974822 254 230 145
-11.240999 -57.829926 25.006792 254 230 145
-11.156012 -57.392707 26.031145 254 230 145
-11.067627 -56.938007 27.047569 254 230 145
-10.975871 -56.465963 28.055753 254 230 145
-10.880772 -55.976718 29.055392 254 230 145
-10.782358 -55.470423 30.046180 254 230 145
-10.680660 -54.947231 31.027816 254 230 145
-10.627877 -60.273686 18.711789 254 230 145
-10.569551 -59.942901 19.777088 254 230 145
-10.508005 -59.593858 20.836362 254 230 145
-10.443258 -59.226661 21.889289 254 230 145
-10.375331 -58.841423 22.935549 254 230 145
-10.304242 -58.438262 23.974822 254 230 145
-10.230015 -58.017300 25.006792 254 230 145
-10.152672 -57.578666 26.031145 254 230 145
-10.072237 -57.122492 27.047569 254 230 145
-9.988733 -56.648918 28.055753 254 230 145
-9.902186 -56.158089 29.055392 254 230 145
-9.812623 -55.650153 30.046180 254 230 145
-9.574337 -60.449988 18.711789 254 230 145
-9.521793 -60.118236 19.777088 254 230 145
-9.466348 -59.768171 20.836362 254 230 145
-9.408020 -59.399900 21.889289 254 230 145
-9.346826 -59.013536 22.935549 254 230 145
-9.282785 -58.609196 23.974822 254 230 145
-9.215916 -58.187002 25.006792 254 230 145
-9.146240 -57.747085 26.031145 254 230 145
-9.073778 -57.289577 27.047569 254 230 145
-8.998551 -56.814618 28.055753 254 230 145
-8.517881 -60.607876 18.711789 254 230 145
-8.471135 -60.275258 19.777088 254 230 145
-8.421808 -59.924279 20.836362 254 230 145
-8.369916 -59.555046 21.889289 254 230 145
-8.315474 -59.167673 22.935549 254 230 145
-8.258499 -58.762276 23.974822 254 230 145
-8.199009 -58.338980 25.006792 254 230 145
-8.137021 -57.897913 26.031145 254 230 145
-8.072555 -57.439210 27.047569 254 230 145
-8.005629 -56.963011 28.055753 254 230 145
-7.497493 -61.062182 17.640791 254 230 145
-7.458831 -60.747303 18.711789 254 230 145
-7.417897 -60.413919 19.777088 254 230 145
-7.374703 -60.062133 20.836362 254 230 145
-7.329262 -59.692051 21.889289 254 230 145
-6.430669 -61.183731 17.640791 254 230 145
-6.397508 -60.868225 18.711789 254 230 145
-6.362398 -60.534178 19.777088 254 230 145
-6.325351 -60.181691 20.836362 254 230 145
-5.334237 -60.970607 18.711789 254 230 145
-5.304962 -60.635997 19.777088 254 230 145
-4.269341 -61.054416 18.711789 254 230 145
-4.245910 -60.719347 19.777088 254 230 145
-3.219747 -61.436436 17.640791 254 230 145
-3.203144 -61.119627 18.711789 254 230 145
-3.185565 -60.784200 19.777088 254 230 145
-2.147043 -61.483272 17.640791 254 230 145
-2.135971 -61.166221 18.711789 254 230 145
-2.124249 -60.830538 19.777088 254 230 145
-1.062286 -60.858347 19.777088 254 230 145
-1.056101 -60.503972 20.836362 254 230 145
0.000000 -60.867617 19.777088 254 230 145
0.000000 -60.513189 20.836362 254 230 145
0.000000 -60.140328 21.889289 254 230 145
0.000000 -59.749147 22.935549 254 230 145
1.062286 -60.858347 19.777088 254 230 145
1.056101 -60.503972 20.836362 254 230 145
1.049593 -60.131168 21.889289 254 230 145
1.042766 -59.740047 22.935549 254 230 145
2.111880 -60.476326 20.836362 254 230 145
2.098867 -60.103692 21.889289 254 230 145
2.085215 -59.712750 22.935549 254 230 145
3.127029 -59.667263 22.935549 254 230 145
37.811665 20.104819 47.561269 255 253 201
38.175309 21.160919 46.806637 255 253 201
1.465352 41.962200 48.301413 255 255 204
0.732788 41.981383 48.301413 255 255 204
0.000000 42.824359 47.561269 255 255 204
0.000000 41.987778 48.301413 255 255 204
-0.761761 43.641247 46.806637 255 255 204
-0.747388 42.817836 47.561269 255 255 204
-0.732788 41.981383 48.301413 255 255 204
-0.717964 41.132141 49.026844 255 255 204
-1.551567 44.431053 46.037747 255 255 204
-1.523290 43.621306 46.806637 255 255 204
-1.494549 42.798271 47.561269 255 255 204
-1.465352 41.962200 48.301413 255 255 204
-1.435710 41.113347 49.026844 255 255 204
-2.326759 44.397207 46.037747 255 255 204
-2.284354 43.588077 46.806637 255 255 204
-2.241254 42.765670 47.561269 255 255 204
-2.197471 41.930235 48.301413 255 255 204
-2.153018 41.082028 49.026844 255 255 204
-3.156818 45.144595 45.254834 255 255 204
-3.101243 44.349838 46.037747 255 255 204
-3.044723 43.541571 46.806637 255 255 204
-2.987276 42.720041 47.561269 255 255 204
-2.928919 41.885498 48.301413 255 255 204
-2.869670 41.038196 49.026844 255 255 204
-3.944219 45.082626 45.254834 255 255 204
-3.874782 44.288959 46.037747 255 255 204
-3.804165 43.481802 46.806637 255 255 204
-3.732389 42.661399 47.561269 255 255 204
-3.659476 41.828002 48.301413 255 255 204
-3.585448 40.981863 49.026844 255 255 204
-4.812255 45.785548 44.458136 255 255 204
-4.730418 45.006923 45.254834 255 255 204
-4.647141 44.214589 46.037747 255 255 204
-4.562447 43.408787 46.806637 255 255 204
-4.476364 42.589762 47.561269 255 255 204
-4.388918 41.757764 48.301413 255 255 204
-5.704294 46.457747 43.647895 255 255 204
-5.610590 45.694589 44.458136 255 255 204
-5.515177 44.917511 45.254834 255 255 204
-5.418084 44.126752 46.037747 255 255 204
-5.319340 43.322550 46.806637 255 255 204
-5.218976 42.505153 47.561269 255 255 204
-5.117023 41.674807 48.301413 255 255 204
-6.514225 46.351118 43.647895 255 255 204
-6.407216 45.589711 44.458136 255 255 204
-6.298256 44.814417 45.254834 255 255 204
-6.187377 44.025472 46.037747 255 255 204
-6.074613 43.223117 46.806637 255 255 204
-5.959999 42.407595 47.561269 255 255 204
-5.843569 41.579156 48.301413 255 255 204
-5.725360 40.738051 49.026844 255 255 204
-5.605406 39.884537 49.737342 255 255 204
-7.322171 46.230370 43.647895 255 255 204
-7.201890 45.470946 44.458136 255 255 204
-7.079416 44.697672 45.254834 255 255 204
-6.954785 43.910782 46.037747 255 255 204
-6.828035 43.110517 46.806637 255 255 204
-6.699206 42.297120 47.561269 255 255 204
-6.568336 41.470839 48.301413 255 255 204
-6.435465 40.631925 49.026844 255 255 204
-6.300634 39.780634 49.737342 255 255 204
-6.163883 38.917226 50.432688 255 255 204
-8.127887 46.095539 43.647895 255 255 204
-7.994371 45.338330 44.458136 255 255 204
-7.858419 44.567311 45.254834 255 255 204
-7.720074 43.782717 46.037747 255 255 204
-7.579377 42.984785 46.806637 255 255 204
-7.436372 42.173761 47.561269 255 255 204
-7.291101 41.349889 48.301413 255 255 204
-7.143609 40.513422 49.026844 255 255 204
-6.993942 39.664614 49.737342 255 255 204
-8.931127 45.946667 43.647895 255 255 204
-8.784416 45.191904 44.458136 255 255 204
-8.635029 44.423375 45.254834 255 255 204
-8.483012 43.641315 46.037747 255 255 204
-8.328411 42.845960 46.806637 255 255 204
-8.171273 42.037555 47.561269 255 255 204
-8.011646 41.216344 48.301413 255 255 204
-7.849578 40.382579 49.026844 255 255 204
-7.685119 39.536512 49.737342 255 255 204
-9.731647 45.783800 43.647895 255 255 204
-9.571786 45.031712 44.458136 255 255 204
-9.409009 44.265907 45.254834 255 255 204
-9.243366 43.486619 46.037747 255 255 204
-9.074908 42.694084 46.806637 255 255 204
-8.903685 41.888544 47.561269 255 255 204
-8.729750 41.070244 48.301413 255 255 204
-8.553156 40.239434 49.026844 255 255 204
-8.373956 39.396367 49.737342 255 255 204
-10.529202 45.606986 43.647895 255 255 204
-10.356240 44.857803 44.458136 255 255 204
-10.180123 44.094956 45.254834 255 255 204
-10.000905 43.318677 46.037747 255 255 204
-9.818640 42.529202 46.806637 255 255 204
-9.633385 41.726773 47.561269 255 255 204
-9.445195 40.911634 48.301413 255 255 204
-9.254128 40.084032 49.026844 255 255 204
-11.506112 46.148496 42.824359 255 255 204
-11.323550 45.416280 43.647895 255 255 204
-11.137539 44.670229 44.458136 255 255 204
-10.948135 43.910572 45.254834 255 255 204
-10.755396 43.137539 46.037747 255 255 204
-10.559382 42.351366 46.806637 255 255 204
-10.360150 41.552292 47.561269 255 255 204
-10.157763 40.740561 48.301413 255 255 204
-9.952281 39.916421 49.026844 255 255 204
-12.309762 45.940658 42.824359 255 255 204
-12.114449 45.211739 43.647895 255 255 204
-11.915446 44.469049 44.458136 255 255 204
-11.712813 43.712813 45.254834 255 255 204
-11.506612 42.943261 46.037747 255 255 204
-11.296907 42.160629 46.806637 255 255 204
-11.083760 41.365154 47.561269 255 255 204
-10.867237 40.557079 48.301413 255 255 204
-10.647403 39.736650 49.026844 255 255 204
-12.901658 44.993427 43.647895 255 255 204
-12.689723 44.254323 44.458136 255 255 204
-12.473923 43.501738 45.254834 255 255 204
-12.254323 42.735903 46.037747 255 255 204
-12.030990 41.957050 46.806637 255 255 204
-11.803993 41.165416 47.561269 255 255 204
-11.573400 40.361243 48.301413 255 255 204
-11.339282 39.544775 49.026844 255 255 204
-13.684936 44.761409 43.647895 255 255 204
-13.460135 44.026117 44.458136 255 255 204
-13.231233 43.277413 45.254834 255 255 204
-12.998301 42.515527 46.037747 255 255 204
-12.761409 41.740690 46.806637 255 255 204
-12.520631 40.953138 47.561269 255 255 204
-12.276038 40.153112 48.301413 255 255 204
-12.027706 39.340854 49.026844 255 255 204
-14.464046 44.515757 43.647895 255 255 204
-14.226446 43.784499 44.458136 255 255 204
-13.984513 43.039905 45.254834 255 255 204
-13.738319 42.282200 46.037747 255 255 204
-13.487941 41.511615 46.806637 255 255 204
-13.233455 40.728385 47.561269 255 255 204
-12.974937 39.932750 48.301413 255 255 204
-15.238750 44.256545 43.647895 255 255 204
-14.988424 43.529545 44.458136 255 255 204
-14.733533 42.789286 45.254834 255 255 204
-14.474153 42.035993 46.037747 255 255 204
-14.210365 41.269896 46.806637 255 255 204
-13.942247 40.491227 47.561269 255 255 204
-13.669883 39.700224 48.301413 255 255 204
-16.008813 43.983851 43.647895 255 255 204
-15.745837 43.261331 44.458136 255 255 204
-15.478065 42.525634 45.254834 255 255 204
-15.205578 41.776982 46.037747 255 255 204
-14.928459 41.015605 46.806637 255 255 204
-14.646793 40.241734 47.561269 255 255 204
-14.360666 39.455605 48.301413 255 255 204
-16.498453 42.979940 44.458136 255 255 204
-16.217882 42.249027 45.254834 255 255 204
-15.932371 41.505245 46.037747 255 255 204
-15.642007 40.748820 46.806637 255 255 204
-15.346878 39.979983 47.561269 255 255 204
-15.047074 39.198968 48.301413 255 255 204
-16.654311 41.220866 46.037747 255 255 204
-16.350789 40.469624 46.806637 255 255 204
-16.042287 39.706054 47.561269 255 255 204
-15.728898 38.930390 48.301413 255 255 204
-17.682472 41.657294 45.254834 255 255 204
-17.371178 40.923930 46.037747 255 255 204
-17.054591 40.178099 46.806637 255 255 204
-16.732810 39.420030 47.561269 255 255 204
-16.405932 38.649953 48.301413 255 255 204
-18.406799 41.342348 45.254834 255 255 204
-18.082753 40.614528 46.037747 255 255 204
-17.753198 39.874336 46.806637 255 255 204
-17.418236 39.121998 47.561269 255 255 204
-17.077968 38.357744 48.301413 255 255 204
-16.732498 37.581805 49.026844 255 255 204
-18.788820 40.292755 46.037747 255 255 204
-18.446398 39.558427 46.806637 255 255 204
-18.098356 38.812050 47.561269 255 255 204
-17.744802 38.053850 48.301413 255 255 204
-17.385842 37.284059 49.026844 255 255 204
-19.489164 39.958708 46.037747 255 255 204
-19.133978 39.230468 46.806637 255 255 204
-18.406230 37.738365 48.301413 255 255 204
-19.815730 38.890559 46.806637 255 255 204
-20.491445 38.538804 46.806637 255 255 204
-20.104819 37.811665 47.561269 255 255 204
-21.160919 38.175309 46.806637 255 255 204
44.256545 15.238750 43.647895 255 253 201
43.983851 16.008813 43.647895 255 253 201
57.041045 -16.356256 23.974822 255 249 191
56.630148 -16.238434 25.006792 255 249 191
57.317813 -15.358262 23.974822 255 249 191
56.904922 -15.247628 25.006792 255 249 191
56.474698 -15.132350 26.031145 255 249 191
57.577122 -14.355589 23.974822 255 249 191
57.162363 -14.252178 25.006792 255 249 191
56.730192 -14.144426 26.031145 255 249 191
56.280741 -14.032365 27.047569 255 249 191
55.814145 -13.916029 28.055753 255 249 191
56.968406 -13.152193 26.031145 255 249 191
56.517067 -13.047993 27.047569 255 249 191
56.048513 -12.939819 28.055753 255 249 191
55.562885 -12.827703 29.055392 255 249 191
55.778297 -11.856043 29.055392 255 249 191
55.273796 -11.748808 30.046180 255 249 191
56.465963 -10.975871 28.055753 255 249 191
55.976718 -10.880772 29.055392 255 249 191
55.470423 -10.782358 30.046180 255 249 191
56.648918 -9.988733 28.055753 255 249 191
56.158089 -9.902186 29.055392 255 249 191
55.650153 -9.812623 30.046180 255 249 191
55.125265 -9.720072 31.027816 255 249 191
56.814618 -8.998551 28.055753 255 249 191
56.322352 -8.920584 29.055392 255 249 191
55.812931 -8.839900 30.046180 255 249 191
55.286508 -8.756523 31.027816 255 249 191
54.743244 -8.670478 32.000000 255 249 191
54.183306 -8.581793 32.962437 255 249 191
53.606862 -8.490493 33.914833 255 249 191
54.886227 -7.713756 32.000000 255 249 191
54.324826 -7.634856 32.962437 255 249 191
53.746877 -7.553631 33.914833 255 249 191
53.152556 -7.470105 34.856898 255 249 191
55.012492 -6.754685 32.000000 255 249 191
54.449799 -6.685595 32.962437 255 249 191
53.870520 -6.614468 33.914833 255 249 191
53.274832 -6.541327 34.856898 255 249 191
55.121998 -5.793555 32.000000 255 249 191
54.558186 -5.734296 32.962437 255 249 191
53.977754 -5.673291 33.914833 255 249 191
53.380880 -5.610557 34.856898 255 249 191
52.767745 -5.546114 35.788346 255 249 191
52.138537 -5.479981 36.708892 255 249 191
54.649953 -4.781251 32.962437 255 249 191
54.068545 -4.730385 33.914833 255 249 191
53.470667 -4.678077 34.856898 255 249 191
52.856501 -4.624345 35.788346 255 249 191
52.226235 -4.569204 36.708892 255 249 191
54.725074 -3.826750 32.962437 255 249 191
54.142867 -3.786038 33.914833 255 249 191
53.544167 -3.744173 34.856898 255 249 191
52.929157 -3.701167 35.788346 255 249 191
52.298024 -3.657034 36.708892 255 249 191
54.200696 -2.840538 33.914833 255 249 191
53.601357 -2.809128 34.856898 255 249 191
52.985690 -2.776862 35.788346 255 249 191
52.353883 -2.743751 36.708892 255 249 191
53.642219 -1.873228 34.856898 255 249 191
53.026083 -1.851712 35.788346 255 249 191
52.733574 31.685528 -17.640791 255 255 204
52.989442 31.839269 -16.564419 255 255 204
49.582751 30.982742 -26.031145 255 255 204
49.960473 31.218768 -25.006792 255 255 204
50.322976 31.445286 -23.974822 255 255 204
52.172554 32.601030 -17.640791 255 255 204
52.425700 32.759213 -16.564419 255 255 204
48.645995 31.591078 -27.047569 255 255 204
49.034476 31.843361 -26.031145 255 255 204
49.408021 32.085944 -25.006792 255 255 204
49.766516 32.318753 -23.974822 255 255 204
50.109851 32.541718 -22.935549 255 255 204
50.437923 32.754770 -21.889289 255 255 204
50.750630 32.957845 -20.836362 255 255 204
51.047879 33.150880 -19.777088 255 255 204
51.329578 33.333818 -18.711789 255 255 204
51.595641 33.506601 -17.640791 255 255 204
51.845988 33.669178 -16.564419 255 255 204
48.087245 32.435257 -27.047569 255 255 204
48.471265 32.694281 -26.031145 255 255 204
48.840519 32.943346 -25.006792 255 255 204
49.194896 33.182376 -23.974822 255 255 204
49.534288 33.411299 -22.935549 255 255 204
49.858591 33.630044 -21.889289 255 255 204
50.167707 33.838546 -20.836362 255 255 204
50.461541 34.036740 -19.777088 255 255 204
50.740005 34.224565 -18.711789 255 255 204
51.003012 34.401966 -17.640791 255 255 204
51.250483 34.568888 -16.564419 255 255 204
47.893288 33.535241 -26.031145 255 255 204
48.258140 33.790713 -25.006792 255 255 204
48.608291 34.035892 -23.974822 255 255 204
48.943636 34.270703 -22.935549 255 255 204
49.569502 34.708939 -20.836362 255 255 204
49.859833 34.912231 -19.777088 255 255 204
50.134976 35.104888 -18.711789 255 255 204
51.082063 35.768045 -14.396867 255 255 204
51.280103 35.906715 -13.306348 255 255 204
49.242937 35.777088 -19.777088 255 255 204
49.514675 35.974517 -18.711789 255 255 204
49.771331 36.160989 -17.640791 255 255 204
50.012826 36.336445 -16.564419 255 255 204
50.239087 36.500833 -15.483001 255 255 204
50.450044 36.654103 -14.396867 255 255 204
50.645634 36.796207 -13.306348 255 255 204
48.879292 36.833188 -18.711789 255 255 204
49.132654 37.024111 -17.640791 255 255 204
49.371051 37.203755 -16.564419 255 255 204
49.594408 37.372067 -15.483001 255 255 204
49.802658 37.528995 -14.396867 255 255 204
49.995738 37.674491 -13.306348 255 255 204
48.229020 37.680640 -18.711789 255 255 204
48.479011 37.875955 -17.640791 255 255 204
48.714236 38.059732 -16.564419 255 255 204
48.934622 38.231917 -15.483001 255 255 204
49.140102 38.392455 -14.396867 255 255 204
49.330613 38.541299 -13.306348 255 255 204
47.564056 38.516613 -18.711789 255 255 204
47.810601 38.716262 -17.640791 255 255 204
48.042583 38.904116 -16.564419 255 255 204
48.259930 39.080121 -15.483001 255 255 204
48.462577 39.244221 -14.396867 255 255 204
48.650461 39.396367 -13.306348 255 255 204
47.127628 39.544775 -17.640791 255 255 204
47.356295 39.736650 -16.564419 255 255 204
47.570538 39.916421 -15.483001 255 255 204
47.770290 40.084032 -14.396867 255 255 204
47.955490 40.239434 -13.306348 255 255 204
48.126083 40.382579 -12.211776 255 255 204
-3.127029 59.667263 22.935549 255 252 198
-3.105603 59.258444 23.974822 255 252 198
-4.195177 59.993829 21.889289 255 252 198
-4.167890 59.603601 22.935549 255 252 198
-4.139333 59.195218 23.974822 255 252 198
-4.109515 58.768803 25.006792 255 252 198
-5.361887 61.286644 17.640791 255 252 198
-5.334237 60.970607 18.711789 255 252 198
-5.304962 60.635997 19.777088 255 252 198
-5.274072 60.282918 20.836362 255 252 198
-5.241575 59.911476 21.889289 255 252 198
-5.207481 59.521784 22.935549 255 252 198
-5.171801 59.113961 23.974822 255 252 198
-5.134546 58.688131 25.006792 255 252 198
-5.095727 58.244425 26.031145 255 252 198
-5.055355 57.782977 27.047569 255 252 198
-6.397508 60.868225 18.711789 255 252 198
-6.362398 60.534178 19.777088 255 252 198
-6.325351 60.181691 20.836362 255 252 198
-6.286376 59.810873 21.889289 255 252 198
-6.245487 59.421835 22.935549 255 252 198
-6.202695 59.014697 23.974822 255 252 198
-6.158013 58.589583 25.006792 255 252 198
-6.111456 58.146621 26.031145 255 252 198
-6.063037 57.685948 27.047569 255 252 198
-6.012772 57.207703 28.055753 255 252 198
-5.960675 56.712032 29.055392 255 252 198
-7.417897 60.413919 19.777088 255 252 198
-7.374703 60.062133 20.836362 255 252 198
-7.329262 59.692051 21.889289 255 252 198
-7.281589 59.303786 22.935549 255 252 198
-7.231698 58.897457 23.974822 255 252 198
-7.179605 58.473187 25.006792 255 252 198
-7.125324 58.031106 26.031145 255 252 198
-7.068873 57.571348 27.047569 255 252 198
-7.010268 57.094053 28.055753 255 252 198
-6.949528 56.599366 29.055392 255 252 198
-8.603577 61.217632 16.564419 255 252 198
-8.562033 60.922033 17.640791 255 252 198
-8.517881 60.607876 18.711789 255 252 198
-8.369916 59.555046 21.889289 255 252 198
-8.315474 59.167673 22.935549 255 252 198
-8.258499 58.762276 23.974822 255 252 198
-8.199009 58.338980 25.006792 255 252 198
-8.137021 57.897913 26.031145 255 252 198
-8.005629 56.963011 28.055753 255 252 198
-7.936265 56.469460 29.055392 255 252 198
-7.864483 55.958708 30.046180 255 252 198
-9.827861 62.050670 12.211776 255 252 198
-9.793024 61.830719 13.306348 255 252 198
-9.755204 61.591933 14.396867 255 252 198
-9.714412 61.334386 15.483001 255 252 198
-9.408020 59.399900 21.889289 255 252 198
-9.346826 59.013536 22.935549 255 252 198
-9.282785 58.609196 23.974822 255 252 198
-9.215916 58.187002 25.006792 255 252 198
-10.375331 58.841423 22.935549 255 252 198
59.537514 12.655089 -19.777088 255 255 204
58.962240 13.612506 -20.836362 255 255 204
59.307584 13.692235 -19.777088 255 255 204
59.634863 13.767793 -18.711789 255 255 204
57.974342 14.454627 -22.935549 255 255 204
58.353903 14.549262 -21.889289 255 255 204
58.715689 14.639465 -20.836362 255 255 204
59.059589 14.725209 -19.777088 255 255 204
55.562776 14.888001 -28.055753 255 255 204
56.027270 15.012462 -27.047569 255 255 204
56.474698 15.132350 -26.031145 255 255 204
56.904922 15.247628 -25.006792 255 255 204
57.317813 15.358262 -23.974822 255 255 204
57.713244 15.464217 -22.935549 255 255 204
58.091096 15.565462 -21.889289 255 255 204
58.451252 15.661966 -20.836362 255 255 204
58.793603 15.753699 -19.777088 255 255 204
54.319597 15.575894 -30.046180 255 255 204
54.815388 15.718060 -29.055392 255 255 204
55.294483 15.855438 -28.055753 255 255 204
55.756733 15.987986 -27.047569 255 255 204
56.202000 16.115664 -26.031145 255 255 204
56.630148 16.238434 -25.006792 255 255 204
57.041045 16.356256 -23.974822 255 255 204
57.434567 16.469097 -22.935549 255 255 204
57.810593 16.576921 -21.889289 255 255 204
58.169011 16.679695 -20.836362 255 255 204
58.509709 16.777389 -19.777088 255 255 204
54.039487 16.521529 -30.046180 255 255 204
54.532722 16.672326 -29.055392 255 255 204
55.009345 16.818045 -28.055753 255 255 204
55.469213 16.958640 -27.047569 255 255 204
55.912183 17.094070 -26.031145 255 255 204
56.338123 17.224293 -25.006792 255 255 204
56.746901 17.349269 -23.974822 255 255 204
57.138394 17.468960 -22.935549 255 255 204
57.512481 17.583330 -21.889289 255 255 204
57.869050 17.692344 -20.836362 255 255 204
58.207992 17.795969 -19.777088 255 255 204
53.742916 17.462132 -30.046180 255 255 204
54.233444 17.621514 -29.055392 255 255 204
54.707452 17.775529 -28.055753 255 255 204
55.164795 17.924129 -27.047569 255 255 204
55.605335 18.067269 -26.031145 255 255 204
56.028937 18.204905 -25.006792 255 255 204
56.435472 18.336996 -23.974822 255 255 204
56.824816 18.463502 -22.935549 255 255 204
57.196851 18.584383 -21.889289 255 255 204
57.551463 18.699604 -20.836362 255 255 204
57.888544 18.809128 -19.777088 255 255 204
53.429974 18.397416 -30.046180 255 255 204
53.917646 18.565334 -29.055392 255 255 204
54.388894 18.727598 -28.055753 255 255 204
54.843574 18.884157 -27.047569 255 255 204
55.281549 19.034964 -26.031145 255 255 204
55.702684 19.179972 -25.006792 255 255 204
56.106852 19.319138 -23.974822 255 255 204
56.493929 19.452420 -22.935549 255 255 204
56.863797 19.579776 -21.889289 255 255 204
57.216344 19.701167 -20.836362 255 255 204
57.551463 19.816558 -19.777088 255 255 204
54.053769 19.673963 -28.055753 255 255 204
54.505647 19.838433 -27.047569 255 255 204
54.940923 19.996861 -26.031145 255 255 204
55.761141 20.295396 -23.974822 255 255 204
56.145833 20.435412 -22.935549 255 255 204
56.513422 20.569204 -21.889289 255 255 204
56.863797 20.696730 -20.836362 255 255 204
57.196851 20.817951 -19.777088 255 255 204
56.824816 21.813003 -19.777088 255 255 204
56.435472 22.801411 -19.777088 255 255 204
56.028937 23.782873 -19.777088 255 255 204
55.605335 24.757090 -19.777088 255 255 204
8.756523 55.286508 31.027816 255 253 199
8.670478 54.743244 32.000000 255 253 199
7.864483 55.958708 30.046180 255 253 199
7.790306 55.430910 31.027816 255 253 199
7.713756 54.886227 32.000000 255 253 199
6.886672 56.087439 30.046180 255 253 199
6.821717 55.558427 31.027816 255 253 199
5.906762 56.199086 30.046180 255 253 199
5.851050 55.669021 31.027816 255 253 199
4.970005 56.807422 29.055392 255 253 199
4.925053 56.293613 30.046180 255 253 199
3.977822 56.885509 29.055392 255 253 199
2.984427 56.946268 29.055392 255 253 199
1.990123 56.989680 29.055392 255 253 199
39.252397 3.434140 50.432688 253 154 65
39.186484 4.118665 50.432688 253 154 65
38.305166 4.026035 51.112673 253 154 65
38.229068 4.693939 51.112673 253 154 65
-43.318677 10.000905 -46.037747 255 255 204
-42.694084 9.074908 -46.806637 255 255 204
-43.486619 9.243366 -46.037747 255 255 204
-44.265907 9.409009 -45.254834 255 255 204
