ply
format ascii 1.0
element vertex 1150
property float x
property float y
property float z
property uchar red
property uchar green
property uchar blue
end_header
7.537872 16.540350 -61.364463 192 192 192
7.759652 17.027003 -61.203504 192 192 192
7.980842 17.512360 -61.037885 192 192 192
8.201425 17.996384 -60.867617 192 192 192
8.421382 18.479037 -60.692714 192 192 192
8.640698 18.960282 -60.513189 192 192 192
8.859357 19.440084 -60.329055 192 192 192
9.077340 19.918405 -60.140328 192 192 192
9.294633 20.395210 -59.947020 192 192 192
9.511217 20.870461 -59.749147 192 192 192
9.727077 21.344123 -59.546724 192 192 192
9.942197 21.816159 -59.339767 192 192 192
0.454306 1.020388 -63.990252 192 192 192
0.681416 1.530485 -63.978069 192 192 192
0.908474 2.040466 -63.961013 192 192 192
1.135463 2.550291 -63.939086 192 192 192
1.362365 3.059922 -63.912290 192 192 192
1.589163 3.569319 -63.880627 192 192 192
1.815841 4.078445 -63.844099 192 192 192
2.042380 4.587261 -63.802709 192 192 192
2.268764 5.095727 -63.756461 192 192 192
2.494975 5.603805 -63.705357 192 192 192
2.720996 6.111456 -63.649401 192 192 192
2.946809 6.618642 -63.588599 192 192 192
3.172399 7.125324 -63.522954 192 192 192
3.397746 7.631463 -63.452471 192 192 192
3.622835 8.137021 -63.377156 192 192 192
3.847648 8.641959 -63.297015 192 192 192
4.072168 9.146240 -63.212054 192 192 192
4.296378 9.649823 -63.122278 192 192 192
4.520261 10.152672 -63.027696 192 192 192
4.743799 10.654748 -62.928314 192 192 192
4.966977 11.156012 -62.824140 192 192 192
5.189776 11.656427 -62.715181 192 192 192
5.412179 12.155954 -62.601446 192 192 192
5.634171 12.654555 -62.482944 192 192 192
5.855734 13.152193 -62.359684 192 192 192
6.076850 13.648829 -62.231675 192 192 192
6.297504 14.144426 -62.098926 192 192 192
6.517678 14.638945 -61.961449 192 192 192
6.737356 15.132350 -61.819253 192 192 192
6.956521 15.624602 -61.672349 192 192 192
7.175156 16.115664 -61.520749 192 192 192
7.393245 16.605499 -61.364463 192 192 192
7.610770 17.094070 -61.203504 192 192 192
7.827716 17.581339 -61.037885 192 192 192
8.044066 18.067269 -60.867617 192 192 192
8.259804 18.551823 -60.692714 192 192 192
8.474912 19.034964 -60.513189 192 192 192
8.689375 19.516655 -60.329055 192 192 192
8.903176 19.996861 -60.140328 192 192 192
9.116299 20.475543 -59.947020 192 192 192
9.328728 20.952666 -59.749147 192 192 192
9.540447 21.428194 -59.546724 192 192 192
9.751439 21.902090 -59.339767 192 192 192
0.445384 1.024314 -63.990252 192 192 192
0.668034 1.536373 -63.978069 192 192 192
0.890633 2.048316 -63.961013 192 192 192
1.113164 2.560102 -63.939086 192 192 192
1.335610 3.071694 -63.912290 192 192 192
1.557955 3.583051 -63.880627 192 192 192
1.780181 4.094136 -63.844099 192 192 192
2.002271 4.604909 -63.802709 192 192 192
2.224209 5.115331 -63.756461 192 192 192
2.445978 5.625364 -63.705357 192 192 192
2.667560 6.134968 -63.649401 192 192 192
2.888939 6.644105 -63.588599 192 192 192
3.110098 7.152737 -63.522954 192 192 192
3.331021 7.660823 -63.452471 192 192 192
3.551689 8.168326 -63.377156 192 192 192
3.772087 8.675207 -63.297015 192 192 192
3.992198 9.181427 -63.212054 192 192 192
4.212005 9.686948 -63.122278 192 192 192
4.431491 10.191732 -63.027696 192 192 192
4.650640 10.695739 -62.928314 192 192 192
4.869434 11.198932 -62.824140 192 192 192
5.087858 11.701272 -62.715181 192 192 192
5.305894 12.202721 -62.601446 192 192 192
5.523526 12.703240 -62.482944 192 192 192
5.740738 13.202792 -62.359684 192 192 192
5.957512 13.701339 -62.231675 192 192 192
6.173832 14.198842 -62.098926 192 192 192
6.389683 14.695264 -61.961449 192 192 192
6.605047 15.190567 -61.819253 192 192 192
6.819907 15.684713 -61.672349 192 192 192
7.034249 16.177665 -61.520749 192 192 192
7.248055 16.669385 -61.364463 192 192 192
7.461308 17.159835 -61.203504 192 192 192
7.673994 17.648978 -61.037885 192 192 192
7.886095 18.136777 -60.867617 192 192 192
8.097596 18.623196 -60.692714 192 192 192
8.308480 19.108196 -60.513189 192 192 192
8.518731 19.591740 -60.329055 192 192 192
8.728334 20.073793 -60.140328 192 192 192
8.937272 20.554317 -59.947020 192 192 192
9.145529 21.033276 -59.749147 192 192 192
9.353089 21.510633 -59.546724 192 192 192
9.559938 21.986352 -59.339767 192 192 192
0.436429 1.028162 -63.990252 192 192 192
0.654602 1.542145 -63.978069 192 192 192
0.872724 2.056010 -63.961013 192 192 192
1.090781 2.569719 -63.939086 192 192 192
1.308754 3.083232 -63.912290 192 192 192
1.526628 3.596511 -63.880627 192 192 192
1.744386 4.109515 -63.844099 192 192 192
1.962010 4.622207 -63.802709 192 192 192
2.179486 5.134546 -63.756461 192 192 192
2.396795 5.646495 -63.705357 192 192 192
2.613922 6.158013 -63.649401 192 192 192
2.830849 6.669063 -63.588599 192 192 192
3.047561 7.179605 -63.522954 192 192 192
3.264041 7.689600 -63.452471 192 192 192
3.480273 8.199009 -63.377156 192 192 192
3.696239 8.707794 -63.297015 192 192 192
3.911924 9.215916 -63.212054 192 192 192
4.127311 9.723336 -63.122278 192 192 192
4.342384 10.230015 -63.027696 192 192 192
4.557126 10.735916 -62.928314 192 192 192
4.771521 11.240999 -62.824140 192 192 192
4.985553 11.745226 -62.715181 192 192 192
5.199204 12.248558 -62.601446 192 192 192
5.412460 12.750958 -62.482944 192 192 192
5.625304 13.252386 -62.359684 192 192 192
5.837720 13.752806 -62.231675 192 192 192
6.049691 14.252178 -62.098926 192 192 192
6.261201 14.750465 -61.961449 192 192 192
6.472234 15.247628 -61.819253 192 192 192
6.682775 15.743630 -61.672349 192 192 192
6.892806 16.238434 -61.520749 192 192 192
7.102313 16.732000 -61.364463 192 192 192
7.311278 17.224293 -61.203504 192 192 192
7.519687 17.715273 -61.037885 192 192 192
7.727524 18.204905 -60.867617 192 192 192
7.934772 18.693150 -60.692714 192 192 192
8.141415 19.179972 -60.513189 192 192 192
8.347439 19.665333 -60.329055 192 192 192
8.552827 20.149197 -60.140328 192 192 192
8.757563 20.631526 -59.947020 192 192 192
8.961633 21.112284 -59.749147 192 192 192
9.165020 21.591434 -59.546724 192 192 192
9.367709 22.068940 -59.339767 192 192 192
0.427440 1.031931 -63.990252 192 192 192
0.641119 1.547798 -63.978069 192 192 192
0.854749 2.063548 -63.961013 192 192 192
1.068315 2.579140 -63.939086 192 192 192
1.281799 3.094536 -63.912290 192 192 192
1.495185 3.609696 -63.880627 192 192 192
1.708457 4.124581 -63.844099 192 192 192
1.921600 4.639152 -63.802709 192 192 192
2.134596 5.153370 -63.756461 192 192 192
2.347429 5.667195 -63.705357 192 192 192
2.560084 6.180589 -63.649401 192 192 192
2.772544 6.693512 -63.588599 192 192 192
2.984792 7.205926 -63.522954 192 192 192
3.196814 7.717791 -63.452471 192 192 192
3.408591 8.229067 -63.377156 192 192 192
3.620110 8.739718 -63.297015 192 192 192
3.831352 9.249702 -63.212054 192 192 192
4.042303 9.758983 -63.122278 192 192 192
4.252946 10.267520 -63.027696 192 192 192
4.463265 10.775275 -62.928314 192 192 192
4.673244 11.282210 -62.824140 192 192 192
4.882868 11.788285 -62.715181 192 192 192
5.092119 12.293463 -62.601446 192 192 192
5.300983 12.797704 -62.482944 192 192 192
5.509443 13.300971 -62.359684 192 192 192
5.717483 13.803225 -62.231675 192 192 192
5.925088 14.304428 -62.098926 192 192 192
6.132242 14.804542 -61.961449 192 192 192
6.338929 15.303528 -61.819253 192 192 192
6.545133 15.801348 -61.672349 192 192 192
6.750838 16.297966 -61.520749 192 192 192
6.956030 16.793342 -61.364463 192 192 192
7.160692 17.287439 -61.203504 192 192 192
7.364808 17.780220 -61.037885 192 192 192
7.771343 18.761682 -60.692714 192 192 192
7.973730 19.250288 -60.513189 192 192 192
8.175511 19.737429 -60.329055 192 192 192
8.376668 20.223066 -60.140328 192 192 192
8.577188 20.707164 -59.947020 192 192 192
8.777055 21.189684 -59.749147 192 192 192
8.976253 21.670591 -59.546724 192 192 192
9.174767 22.149847 -59.339767 192 192 192
0.418418 1.035622 -63.990252 192 192 192
0.627588 1.553334 -63.978069 192 192 192
0.836709 2.070928 -63.961013 192 192 192
1.045767 2.588364 -63.939086 192 192 192
1.254745 3.105603 -63.912290 192 192 192
1.463628 3.622606 -63.880627 192 192 192
1.672399 4.139333 -63.844099 192 192 192
1.881043 4.655744 -63.802709 192 192 192
2.089543 5.171801 -63.756461 192 192 192
2.297885 5.687465 -63.705357 192 192 192
2.506051 6.202695 -63.649401 192 192 192
2.714027 6.717452 -63.588599 192 192 192
2.921796 7.231698 -63.522954 192 192 192
3.129342 7.745394 -63.452471 192 192 192
3.336650 8.258499 -63.377156 192 192 192
3.543704 8.770976 -63.297015 192 192 192
3.750488 9.282785 -63.212054 192 192 192
3.956987 9.793886 -63.122278 192 192 192
4.163184 10.304242 -63.027696 192 192 192
4.369064 10.813814 -62.928314 192 192 192
4.574612 11.322561 -62.824140 192 192 192
4.779811 11.830447 -62.715181 192 192 192
4.984646 12.337431 -62.601446 192 192 192
5.189101 12.843476 -62.482944 192 192 192
5.393161 13.348543 -62.359684 192 192 192
5.596811 13.852593 -62.231675 192 192 192
5.800034 14.355589 -62.098926 192 192 192
6.002816 14.857491 -61.961449 192 192 192
6.205141 15.358262 -61.819253 192 192 192
6.406992 15.857863 -61.672349 192 192 192
6.608357 16.356256 -61.520749 192 192 192
6.809217 16.853404 -61.364463 192 192 192
7.009560 17.349269 -61.203504 192 192 192
7.209368 17.843812 -61.037885 192 192 192
7.805439 19.319138 -60.513189 192 192 192
8.396160 20.781224 -59.947020 192 192 192
8.591808 21.265471 -59.749147 192 192 192
8.786802 21.748097 -59.546724 192 192 192
8.981126 22.229068 -59.339767 192 192 192
0.409365 1.039234 -63.990252 192 192 192
0.614009 1.558752 -63.978069 192 192 192
0.818605 2.078151 -63.961013 192 192 192
1.023140 2.597392 -63.939086 192 192 192
1.227596 3.116435 -63.912290 192 192 192
1.431959 3.635241 -63.880627 192 192 192
1.636213 4.153770 -63.844099 192 192 192
1.840343 4.671982 -63.802709 192 192 192
2.044332 5.189839 -63.756461 192 192 192
2.248165 5.707301 -63.705357 192 192 192
2.451828 6.224328 -63.649401 192 192 192
2.655303 6.740881 -63.588599 192 192 192
2.858577 7.256920 -63.522954 192 192 192
3.061633 7.772407 -63.452471 192 192 192
3.264455 8.287302 -63.377156 192 192 192
3.467029 8.801566 -63.297015 192 192 192
3.669339 9.315160 -63.212054 192 192 192
3.871370 9.828044 -63.122278 192 192 192
4.073105 10.340180 -63.027696 192 192 192
4.274531 10.851529 -62.928314 192 192 192
4.475631 11.362051 -62.824140 192 192 192
4.676390 11.871707 -62.715181 192 192 192
4.876793 12.380460 -62.601446 192 192 192
5.076825 12.888270 -62.482944 192 192 192
5.276470 13.395098 -62.359684 192 192 192
5.475713 13.900907 -62.231675 192 192 192
5.674539 14.405656 -62.098926 192 192 192
5.872933 14.909309 -61.961449 192 192 192
6.070880 15.411826 -61.819253 192 192 192
6.268364 15.913170 -61.672349 192 192 192
6.465371 16.413302 -61.520749 192 192 192
6.661886 16.912183 -61.364463 192 192 192
6.857894 17.409777 -61.203504 192 192 192
7.053379 17.906045 -61.037885 192 192 192
7.636552 19.386517 -60.513189 192 192 192
8.214492 20.853702 -59.947020 192 192 192
8.405907 21.339638 -59.749147 192 192 192
8.596682 21.823948 -59.546724 192 192 192
8.786802 22.306596 -59.339767 192 192 192
0.400281 1.042766 -63.990252 192 192 192
0.600383 1.564050 -63.978069 192 192 192
0.800439 2.085215 -63.961013 192 192 192
1.000435 2.606221 -63.939086 192 192 192
1.200354 3.127029 -63.912290 192 192 192
1.400182 3.647598 -63.880627 192 192 192
1.599903 4.167890 -63.844099 192 192 192
1.799502 4.687864 -63.802709 192 192 192
1.998965 5.207481 -63.756461 192 192 192
2.198275 5.726702 -63.705357 192 192 192
2.397418 6.245487 -63.649401 192 192 192
2.596378 6.763795 -63.588599 192 192 192
2.795140 7.281589 -63.522954 192 192 192
2.993690 7.798829 -63.452471 192 192 192
3.192011 8.315474 -63.377156 192 192 192
3.390090 8.831486 -63.297015 192 192 192
3.587910 9.346826 -63.212054 192 192 192
3.785457 9.861454 -63.122278 192 192 192
3.982716 10.375331 -63.027696 192 192 192
4.179672 10.888417 -62.928314 192 192 192
4.376309 11.400675 -62.824140 192 192 192
4.572613 11.912064 -62.715181 192 192 192
4.768569 12.422546 -62.601446 192 192 192
4.964161 12.932082 -62.482944 192 192 192
5.159376 13.440634 -62.359684 192 192 192
5.354198 13.948161 -62.231675 192 192 192
5.548611 14.454627 -62.098926 192 192 192
5.742603 14.959992 -61.961449 192 192 192
5.936157 15.464217 -61.819253 192 192 192
6.129259 15.967265 -61.672349 192 192 192
6.321894 16.469097 -61.520749 192 192 192
6.514048 16.969675 -61.364463 192 192 192
6.705705 17.468960 -61.203504 192 192 192
6.896853 17.966915 -61.037885 192 192 192
7.656044 19.944675 -60.329055 192 192 192
8.219366 21.412179 -59.749147 192 192 192
8.405907 21.898136 -59.546724 192 192 192
8.591808 22.382425 -59.339767 192 192 192
0.391166 1.046220 -63.990252 192 192 192
0.586711 1.569230 -63.978069 192 192 192
0.782212 2.092121 -63.961013 192 192 192
0.977653 2.614852 -63.939086 192 192 192
1.173020 3.137385 -63.912290 192 192 192
1.368298 3.659678 -63.880627 192 192 192
1.563471 4.181693 -63.844099 192 192 192
1.758525 4.703389 -63.802709 192 192 192
1.953445 5.224727 -63.756461 192 192 192
2.148217 5.745667 -63.705357 192 192 192
2.342825 6.266170 -63.649401 192 192 192
2.537254 6.786195 -63.588599 192 192 192
2.731491 7.305704 -63.522954 192 192 192
2.925519 7.824656 -63.452471 192 192 192
3.119325 8.343013 -63.377156 192 192 192
3.312893 8.860734 -63.297015 192 192 192
3.506208 9.377780 -63.212054 192 192 192
3.699257 9.894112 -63.122278 192 192 192
3.892024 10.409691 -63.027696 192 192 192
4.084494 10.924477 -62.928314 192 192 192
4.276654 11.438431 -62.824140 192 192 192
4.468488 11.951514 -62.715181 192 192 192
4.659981 12.463686 -62.601446 192 192 192
4.851120 12.974910 -62.482944 192 192 192
5.041889 13.485145 -62.359684 192 192 192
5.232275 13.994354 -62.231675 192 192 192
5.422261 14.502497 -62.098926 192 192 192
5.611835 15.009535 -61.961449 192 192 192
5.800982 15.515431 -61.819253 192 192 192
5.989687 16.020144 -61.672349 192 192 192
6.177935 16.523638 -61.520749 192 192 192
6.365713 17.025874 -61.364463 192 192 192
6.553007 17.526812 -61.203504 192 192 192
6.739801 18.026417 -61.037885 192 192 192
8.032198 21.483091 -59.749147 192 192 192
8.214492 21.970656 -59.546724 192 192 192
8.396160 22.456549 -59.339767 192 192 192
0.382021 1.049593 -63.990252 192 192 192
0.572995 1.574290 -63.978069 192 192 192
0.763925 2.098867 -63.961013 192 192 192
0.954797 2.623284 -63.939086 192 192 192
1.145597 3.147502 -63.912290 192 192 192
1.336309 3.671479 -63.880627 192 192 192
1.526920 4.195177 -63.844099 192 192 192
1.717414 4.718556 -63.802709 192 192 192
1.907777 5.241575 -63.756461 192 192 192
2.097995 5.764195 -63.705357 192 192 192
2.288054 6.286376 -63.649401 192 192 192
2.477938 6.808078 -63.588599 192 192 192
2.667633 7.329262 -63.522954 192 192 192
2.857126 7.849888 -63.452471 192 192 192
3.046400 8.369916 -63.377156 192 192 192
3.235443 8.889306 -63.297015 192 192 192
3.424239 9.408020 -63.212054 192 192 192
3.612775 9.926017 -63.122278 192 192 192
3.801035 10.443258 -63.027696 192 192 192
3.989006 10.959704 -62.928314 192 192 192
4.176673 11.475316 -62.824140 192 192 192
4.364022 11.990053 -62.715181 192 192 192
4.551039 12.503877 -62.601446 192 192 192
4.737709 13.016749 -62.482944 192 192 192
4.924019 13.528630 -62.359684 192 192 192
5.109953 14.039481 -62.231675 192 192 192
5.295498 14.549262 -62.098926 192 192 192
5.480640 15.057936 -61.961449 192 192 192
5.665365 15.565462 -61.819253 192 192 192
5.849658 16.071804 -61.672349 192 192 192
6.033506 16.576921 -61.520749 192 192 192
6.216894 17.080776 -61.364463 192 192 192
6.399809 17.583330 -61.203504 192 192 192
6.582236 18.084545 -61.037885 192 192 192
8.022451 22.041504 -59.546724 192 192 192
0.372847 1.052887 -63.990252 192 192 192
0.559235 1.579231 -63.978069 192 192 192
0.745580 2.105454 -63.961013 192 192 192
0.931869 2.631516 -63.939086 192 192 192
1.118086 3.157379 -63.912290 192 192 192
1.304219 3.683001 -63.880627 192 192 192
1.490252 4.208342 -63.844099 192 192 192
1.676172 4.733363 -63.802709 192 192 192
1.861964 5.258024 -63.756461 192 192 192
2.047614 5.782284 -63.705357 192 192 192
2.233108 6.306103 -63.649401 192 192 192
2.418433 6.829443 -63.588599 192 192 192
2.603573 7.352262 -63.522954 192 192 192
2.788514 7.874522 -63.452471 192 192 192
2.973244 8.396182 -63.377156 192 192 192
3.157747 8.917202 -63.297015 192 192 192
3.342009 9.437544 -63.212054 192 192 192
3.526017 9.957166 -63.122278 192 192 192
3.709757 10.476031 -63.027696 192 192 192
3.893214 10.994097 -62.928314 192 192 192
4.076374 11.511326 -62.824140 192 192 192
4.259225 12.027679 -62.715181 192 192 192
4.441750 12.543116 -62.601446 192 192 192
4.623938 13.057597 -62.482944 192 192 192
4.805773 13.571085 -62.359684 192 192 192
4.987242 14.083538 -62.231675 192 192 192
5.168332 14.594919 -62.098926 192 192 192
5.349028 15.105189 -61.961449 192 192 192
5.529317 15.614309 -61.819253 192 192 192
5.709184 16.122239 -61.672349 192 192 192
5.888617 16.628941 -61.520749 192 192 192
6.067601 17.134377 -61.364463 192 192 192
6.246124 17.638509 -61.203504 192 192 192
6.424170 18.141297 -61.037885 192 192 192
0.363645 1.056101 -63.990252 192 192 192
0.545432 1.584051 -63.978069 192 192 192
0.727179 2.111880 -63.961013 192 192 192
0.908869 2.639548 -63.939086 192 192 192
1.090491 3.167016 -63.912290 192 192 192
1.272029 3.694242 -63.880627 192 192 192
1.453471 4.221187 -63.844099 192 192 192
1.634802 4.747810 -63.802709 192 192 192
1.816009 5.274072 -63.756461 192 192 192
1.997077 5.799932 -63.705357 192 192 192
2.177993 6.325351 -63.649401 192 192 192
2.358743 6.850287 -63.588599 192 192 192
2.539314 7.374703 -63.522954 192 192 192
2.719691 7.898556 -63.452471 192 192 192
2.899861 8.421808 -63.377156 192 192 192
3.079810 8.944419 -63.297015 192 192 192
3.259525 9.466348 -63.212054 192 192 192
3.438992 9.987557 -63.122278 192 192 192
3.618196 10.508005 -63.027696 192 192 192
3.797125 11.027653 -62.928314 192 192 192
3.975765 11.546461 -62.824140 192 192 192
4.154102 12.064389 -62.715181 192 192 192
4.332123 12.581399 -62.601446 192 192 192
4.509814 13.097451 -62.482944 192 192 192
4.687162 13.612506 -62.359684 192 192 192
4.864152 14.126523 -62.231675 192 192 192
5.040772 14.639465 -62.098926 192 192 192
5.217008 15.151292 -61.961449 192 192 192
5.392847 15.661966 -61.819253 192 192 192
5.568276 16.171446 -61.672349 192 192 192
5.743280 16.679695 -61.520749 192 192 192
5.917847 17.186674 -61.364463 192 192 192
6.091963 17.692344 -61.203504 192 192 192
6.265615 18.196667 -61.037885 192 192 192
6.438790 18.699604 -60.867617 192 192 192
0.354415 1.059234 -63.990252 192 192 192
0.531588 1.588750 -63.978069 192 192 192
0.708721 2.118145 -63.961013 192 192 192
0.885801 2.647379 -63.939086 192 192 192
1.062812 3.176411 -63.912290 192 192 192
1.239743 3.705202 -63.880627 192 192 192
1.416579 4.233710 -63.844099 192 192 192
1.593308 4.761895 -63.802709 192 192 192
1.769915 5.289719 -63.756461 192 192 192
1.946387 5.817139 -63.705357 192 192 192
2.122712 6.344116 -63.649401 192 192 192
2.298874 6.870610 -63.588599 192 192 192
2.474861 7.396581 -63.522954 192 192 192
2.650660 7.921989 -63.452471 192 192 192
2.826257 8.446793 -63.377156 192 192 192
3.001639 8.970954 -63.297015 192 192 192
3.176793 9.494432 -63.212054 192 192 192
3.351704 10.017187 -63.122278 192 192 192
3.526360 10.539179 -63.027696 192 192 192
3.700748 11.060369 -62.928314 192 192 192
3.874853 11.580716 -62.824140 192 192 192
4.048664 12.100181 -62.715181 192 192 192
4.222166 12.618725 -62.601446 192 192 192
4.395347 13.136308 -62.482944 192 192 192
4.568193 13.652890 -62.359684 192 192 192
4.740691 14.168433 -62.231675 192 192 192
4.912828 14.682896 -62.098926 192 192 192
5.084591 15.196242 -61.961449 192 192 192
5.255967 15.708430 -61.819253 192 192 192
5.426943 16.219422 -61.672349 192 192 192
5.597505 16.729179 -61.520749 192 192 192
5.767641 17.237662 -61.364463 192 192 192
5.937338 17.744832 -61.203504 192 192 192
6.106582 18.250651 -61.037885 192 192 192
6.275362 18.755080 -60.867617 192 192 192
6.443664 19.258081 -60.692714 192 192 192
0.345158 1.062286 -63.990252 192 192 192
0.517704 1.593328 -63.978069 192 192 192
0.690210 2.124249 -63.961013 192 192 192
0.862664 2.655008 -63.939086 192 192 192
1.035053 3.185565 -63.912290 192 192 192
1.207362 3.715879 -63.880627 192 192 192
1.379580 4.245910 -63.844099 192 192 192
1.551692 4.775618 -63.802709 192 192 192
1.723687 5.304962 -63.756461 192 192 192
1.895550 5.833903 -63.705357 192 192 192
2.067269 6.362398 -63.649401 192 192 192
2.238830 6.890410 -63.588599 192 192 192
2.410221 7.417897 -63.522954 192 192 192
2.581428 7.944818 -63.452471 192 192 192
2.752439 8.471135 -63.377156 192 192 192
2.923240 8.996807 -63.297015 192 192 192
3.093818 9.521793 -63.212054 192 192 192
3.264161 10.046054 -63.122278 192 192 192
3.434255 10.569551 -63.027696 192 192 192
3.604088 11.092242 -62.928314 192 192 192
3.773646 11.614089 -62.824140 192 192 192
3.942917 12.135051 -62.715181 192 192 192
4.111888 12.655089 -62.601446 192 192 192
4.280545 13.174164 -62.482944 192 192 192
4.448877 13.692235 -62.359684 192 192 192
4.616869 14.209263 -62.231675 192 192 192
4.784511 14.725209 -62.098926 192 192 192
4.951787 15.240034 -61.961449 192 192 192
5.118687 15.753699 -61.819253 192 192 192
5.285197 16.266163 -61.672349 192 192 192
5.451304 16.777389 -61.520749 192 192 192
5.616996 17.287337 -61.364463 192 192 192
5.782261 17.795969 -61.203504 192 192 192
5.947085 18.303245 -61.037885 192 192 192
6.111456 18.809128 -60.867617 192 192 192
6.275362 19.313578 -60.692714 192 192 192
6.438790 19.816558 -60.513189 192 192 192
6.601728 20.318028 -60.329055 192 192 192
0.335875 1.065258 -63.990252 192 192 192
0.503780 1.597786 -63.978069 192 192 192
0.671647 2.130191 -63.961013 192 192 192
0.839463 2.662435 -63.939086 192 192 192
1.007214 3.194476 -63.912290 192 192 192
1.174890 3.726274 -63.880627 192 192 192
1.342475 4.257788 -63.844099 192 192 192
1.509959 4.788977 -63.802709 192 192 192
1.677327 5.319802 -63.756461 192 192 192
1.844568 5.850222 -63.705357 192 192 192
2.011668 6.380196 -63.649401 192 192 192
2.178615 6.909685 -63.588599 192 192 192
2.345396 7.438647 -63.522954 192 192 192
2.511999 7.967043 -63.452471 192 192 192
2.678410 8.494832 -63.377156 192 192 192
2.844617 9.021974 -63.297015 192 192 192
3.010608 9.548429 -63.212054 192 192 192
3.176369 10.074157 -63.122278 192 192 192
3.341889 10.599117 -63.027696 192 192 192
3.507154 11.123271 -62.928314 192 192 192
3.672152 11.646577 -62.824140 192 192 192
3.836870 12.168997 -62.715181 192 192 192
4.001296 12.690490 -62.601446 192 192 192
4.165417 13.211016 -62.482944 192 192 192
4.329222 13.730537 -62.359684 192 192 192
4.492696 14.249011 -62.231675 192 192 192
4.655828 14.766401 -62.098926 192 192 192
4.818606 15.282666 -61.961449 192 192 192
4.981017 15.797767 -61.819253 192 192 192
5.143048 16.311665 -61.672349 192 192 192
5.304688 16.824321 -61.520749 192 192 192
5.465924 17.335696 -61.364463 192 192 192
5.626744 17.845750 -61.203504 192 192 192
5.787135 18.354446 -61.037885 192 192 192
5.947085 18.861744 -60.867617 192 192 192
6.106582 19.367605 -60.692714 192 192 192
6.265615 19.871992 -60.513189 192 192 192
0.326566 1.068148 -63.990252 192 192 192
0.489818 1.602121 -63.978069 192 192 192
0.653032 2.135971 -63.961013 192 192 192
0.816197 2.669659 -63.939086 192 192 192
0.979299 3.203144 -63.912290 192 192 192
1.142327 3.736385 -63.880627 192 192 192
1.305268 4.269341 -63.844099 192 192 192
1.468110 4.801972 -63.802709 192 192 192
1.630840 5.334237 -63.756461 192 192 192
1.793446 5.866096 -63.705357 192 192 192
1.955915 6.397508 -63.649401 192 192 192
2.118235 6.928433 -63.588599 192 192 192
2.280393 7.458831 -63.522954 192 192 192
2.442379 7.988660 -63.452471 192 192 192
2.604178 8.517881 -63.377156 192 192 192
2.765779 9.046454 -63.297015 192 192 192
2.927169 9.574337 -63.212054 192 192 192
3.088336 10.101492 -63.122278 192 192 192
3.249268 10.627877 -63.027696 192 192 192
3.409953 11.153453 -62.928314 192 192 192
3.570378 11.678179 -62.824140 192 192 192
3.730531 12.202016 -62.715181 192 192 192
3.890400 12.724924 -62.601446 192 192 192
4.049972 13.246863 -62.482944 192 192 192
4.209237 13.767793 -62.359684 192 192 192
4.368180 14.287674 -62.231675 192 192 192
4.526791 14.806468 -62.098926 192 192 192
4.685058 15.324134 -61.961449 192 192 192
4.842967 15.840633 -61.819253 192 192 192
5.000508 16.355925 -61.672349 192 192 192
5.157668 16.869972 -61.520749 192 192 192
5.314435 17.382734 -61.364463 192 192 192
5.470798 17.894173 -61.203504 192 192 192
5.626744 18.404249 -61.037885 192 192 192
5.782261 18.912923 -60.867617 192 192 192
5.937338 19.420157 -60.692714 192 192 192
6.091963 19.925912 -60.513189 192 192 192
6.246124 20.430150 -60.329055 192 192 192
6.399809 20.932831 -60.140328 192 192 192
0.317232 1.070958 -63.990252 192 192 192
0.475818 1.606334 -63.978069 192 192 192
0.634368 2.141589 -63.961013 192 192 192
0.792869 2.676680 -63.939086 192 192 192
0.951310 3.211568 -63.912290 192 192 192
1.109678 3.746211 -63.880627 192 192 192
1.267962 4.280569 -63.844099 192 192 192
1.426150 4.814600 -63.802709 192 192 192
1.584228 5.348265 -63.756461 192 192 192
1.742187 5.881523 -63.705357 192 192 192
1.900012 6.414333 -63.649401 192 192 192
2.057693 6.946654 -63.588599 192 192 192
2.215217 7.478447 -63.522954 192 192 192
2.372572 8.009670 -63.452471 192 192 192
2.529747 8.540283 -63.377156 192 192 192
2.686729 9.070245 -63.297015 192 192 192
2.843506 9.599517 -63.212054 192 192 192
3.000067 10.128058 -63.122278 192 192 192
3.156400 10.655827 -63.027696 192 192 192
3.312492 11.182785 -62.928314 192 192 192
3.468332 11.708892 -62.824140 192 192 192
3.623907 12.234106 -62.715181 192 192 192
3.779207 12.758389 -62.601446 192 192 192
3.934219 13.281701 -62.482944 192 192 192
4.088931 13.804001 -62.359684 192 192 192
4.243332 14.325249 -62.231675 192 192 192
4.397410 14.845407 -62.098926 192 192 192
4.551153 15.364435 -61.961449 192 192 192
4.704549 15.882292 -61.819253 192 192 192
4.857587 16.398939 -61.672349 192 192 192
5.010255 16.914338 -61.520749 192 192 192
5.162542 17.428449 -61.364463 192 192 192
5.314435 17.941233 -61.203504 192 192 192
5.465924 18.452650 -61.037885 192 192 192
5.616996 18.962662 -60.867617 192 192 192
5.767641 19.471230 -60.692714 192 192 192
5.917847 19.978315 -60.513189 192 192 192
6.067601 20.483879 -60.329055 192 192 192
6.216894 20.987882 -60.140328 192 192 192
0.307874 1.073685 -63.990252 192 192 192
0.461782 1.610425 -63.978069 192 192 192
0.615655 2.147043 -63.961013 192 192 192
0.769480 2.683497 -63.939086 192 192 192
0.923248 3.219747 -63.912290 192 192 192
1.076945 3.755752 -63.880627 192 192 192
1.230559 4.291470 -63.844099 192 192 192
1.384080 4.826862 -63.802709 192 192 192
1.537496 5.361887 -63.756461 192 192 192
1.690795 5.896502 -63.705357 192 192 192
1.843965 6.430669 -63.649401 192 192 192
1.996994 6.964346 -63.588599 192 192 192
2.149872 7.497493 -63.522954 192 192 192
2.302585 8.030069 -63.452471 192 192 192
2.455124 8.562033 -63.377156 192 192 192
2.607475 9.093346 -63.297015 192 192 192
2.759628 9.623965 -63.212054 192 192 192
2.911570 10.153852 -63.122278 192 192 192
3.063291 10.682966 -63.027696 192 192 192
3.214779 11.211266 -62.928314 192 192 192
3.366022 11.738712 -62.824140 192 192 192
3.517008 12.265265 -62.715181 192 192 192
3.667727 12.790883 -62.601446 192 192 192
3.818166 13.315527 -62.482944 192 192 192
3.968314 13.839157 -62.359684 192 192 192
4.118161 14.361734 -62.231675 192 192 192
4.267694 14.883216 -62.098926 192 192 192
4.416901 15.403565 -61.961449 192 192 192
4.565773 15.922741 -61.819253 192 192 192
4.714296 16.440705 -61.672349 192 192 192
4.862461 16.957416 -61.520749 192 192 192
5.010255 17.472837 -61.364463 192 192 192
5.157668 17.986926 -61.203504 192 192 192
5.304688 18.499646 -61.037885 192 192 192
5.451304 19.010957 -60.867617 192 192 192
5.597505 19.520820 -60.692714 192 192 192
5.743280 20.029197 -60.513189 192 192 192
5.888617 20.536048 -60.329055 192 192 192
6.033506 21.041335 -60.140328 192 192 192
0.298493 1.076331 -63.990252 192 192 192
0.447711 1.614394 -63.978069 192 192 192
0.596895 2.152334 -63.961013 192 192 192
0.746034 2.690110 -63.939086 192 192 192
0.895115 3.227681 -63.912290 192 192 192
1.044129 3.765007 -63.880627 192 192 192
1.193063 4.302046 -63.844099 192 192 192
1.341906 4.838757 -63.802709 192 192 192
1.490647 5.375099 -63.756461 192 192 192
1.639274 5.911033 -63.705357 192 192 192
1.787777 6.446516 -63.649401 192 192 192
1.936144 6.981508 -63.588599 192 192 192
2.084363 7.515969 -63.522954 192 192 192
2.232423 8.049857 -63.452471 192 192 192
2.380313 8.583132 -63.377156 192 192 192
2.528022 9.115754 -63.297015 192 192 192
2.675539 9.647681 -63.212054 192 192 192
2.822851 10.178874 -63.122278 192 192 192
2.969949 10.709291 -63.027696 192 192 192
3.116821 11.238893 -62.928314 192 192 192
3.263455 11.767639 -62.824140 192 192 192
3.409841 12.295489 -62.715181 192 192 192
3.555967 12.822402 -62.601446 192 192 192
3.701822 13.348339 -62.482944 192 192 192
3.847395 13.873260 -62.359684 192 192 192
3.992676 14.397124 -62.231675 192 192 192
4.137652 14.919892 -62.098926 192 192 192
4.282313 15.441523 -61.961449 192 192 192
4.426648 15.961978 -61.819253 192 192 192
4.570646 16.481218 -61.672349 192 192 192
4.714296 16.999203 -61.520749 192 192 192
4.857587 17.515893 -61.364463 192 192 192
5.000508 18.031250 -61.203504 192 192 192
5.143048 18.545233 -61.037885 192 192 192
5.285197 19.057804 -60.867617 192 192 192
5.426943 19.568924 -60.692714 192 192 192
5.568276 20.078553 -60.513189 192 192 192
5.709184 20.586653 -60.329055 192 192 192
5.849658 21.093186 -60.140328 192 192 192
0.289089 1.078895 -63.990252 192 192 192
0.433606 1.618239 -63.978069 192 192 192
0.578090 2.157461 -63.961013 192 192 192
0.722530 2.696518 -63.939086 192 192 192
0.866915 3.235370 -63.912290 192 192 192
1.011234 3.773975 -63.880627 192 192 192
1.155475 4.312293 -63.844099 192 192 192
1.299629 4.850283 -63.802709 192 192 192
1.443684 5.387903 -63.756461 192 192 192
1.587629 5.925113 -63.705357 192 192 192
1.731453 6.461872 -63.649401 192 192 192
1.875145 6.998138 -63.588599 192 192 192
2.018695 7.533872 -63.522954 192 192 192
2.162091 8.069032 -63.452471 192 192 192
2.305322 8.603577 -63.377156 192 192 192
2.448377 9.137467 -63.297015 192 192 192
2.591246 9.670662 -63.212054 192 192 192
2.733918 10.203120 -63.122278 192 192 192
2.876381 10.734801 -63.027696 192 192 192
3.018626 11.265664 -62.928314 192 192 192
3.160640 11.795670 -62.824140 192 192 192
3.302414 12.324777 -62.715181 192 192 192
3.443936 12.852945 -62.601446 192 192 192
3.585196 13.380135 -62.482944 192 192 192
3.726183 13.906306 -62.359684 192 192 192
3.866887 14.431418 -62.231675 192 192 192
4.007296 14.955431 -62.098926 192 192 192
4.147399 15.478305 -61.961449 192 192 192
4.287187 16.000000 -61.819253 192 192 192
4.426648 16.520477 -61.672349 192 192 192
4.565773 17.039695 -61.520749 192 192 192
4.704549 17.557616 -61.364463 192 192 192
4.842967 18.074200 -61.203504 192 192 192
4.981017 18.589408 -61.037885 192 192 192
5.118687 19.103200 -60.867617 192 192 192
5.255967 19.615537 -60.692714 192 192 192
5.392847 20.126380 -60.513189 192 192 192
5.529317 20.635691 -60.329055 192 192 192
5.665365 21.143430 -60.140328 192 192 192
0.279663 1.081376 -63.990252 192 192 192
0.419468 1.621962 -63.978069 192 192 192
0.559241 2.162423 -63.961013 192 192 192
0.698971 2.702720 -63.939086 192 192 192
0.838648 3.242812 -63.912290 192 192 192
0.978261 3.782656 -63.880627 192 192 192
1.117800 4.322212 -63.844099 192 192 192
1.257254 4.861439 -63.802709 192 192 192
1.396612 5.400296 -63.756461 192 192 192
1.535863 5.938742 -63.705357 192 192 192
1.674998 6.476735 -63.649401 192 192 192
1.814005 7.014235 -63.588599 192 192 192
1.952873 7.551201 -63.522954 192 192 192
2.091594 8.087592 -63.452471 192 192 192
2.230154 8.623367 -63.377156 192 192 192
2.368545 9.158485 -63.297015 192 192 192
2.506756 9.692906 -63.212054 192 192 192
2.644776 10.226589 -63.122278 192 192 192
2.782594 10.759493 -63.027696 192 192 192
2.920200 11.291577 -62.928314 192 192 192
3.057584 11.822802 -62.824140 192 192 192
3.194736 12.353126 -62.715181 192 192 192
3.331644 12.882510 -62.601446 192 192 192
3.468298 13.410912 -62.482944 192 192 192
3.604688 13.938293 -62.359684 192 192 192
3.740803 14.464613 -62.231675 192 192 192
3.876634 14.989831 -62.098926 192 192 192
4.012169 15.513908 -61.961449 192 192 192
4.147399 16.036803 -61.819253 192 192 192
4.282313 16.558477 -61.672349 192 192 192
4.416901 17.078890 -61.520749 192 192 192
4.551153 17.598002 -61.364463 192 192 192
4.685058 18.115774 -61.203504 192 192 192
4.818606 18.632167 -61.037885 192 192 192
4.951787 19.147141 -60.867617 192 192 192
5.084591 19.660656 -60.692714 192 192 192
5.217008 20.172675 -60.513189 192 192 192
5.349028 20.683157 -60.329055 192 192 192
5.480640 21.192064 -60.140328 192 192 192
0.270216 1.083776 -63.990252 192 192 192
0.405298 1.625560 -63.978069 192 192 192
0.540349 2.167221 -63.961013 192 192 192
0.675359 2.708717 -63.939086 192 192 192
0.810318 3.250007 -63.912290 192 192 192
0.945215 3.791049 -63.880627 192 192 192
1.080040 4.331802 -63.844099 192 192 192
1.214782 4.872226 -63.802709 192 192 192
1.349432 5.412278 -63.756461 192 192 192
1.483980 5.951918 -63.705357 192 192 192
1.618414 6.491105 -63.649401 192 192 192
1.752726 7.029798 -63.588599 192 192 192
1.886903 7.567955 -63.522954 192 192 192
2.020937 8.105536 -63.452471 192 192 192
2.154817 8.642500 -63.377156 192 192 192
2.288533 9.178806 -63.297015 192 192 192
2.422075 9.714412 -63.212054 192 192 192
2.555432 10.249279 -63.122278 192 192 192
2.688595 10.783365 -63.027696 192 192 192
2.821553 11.316630 -62.928314 192 192 192
2.954296 11.849034 -62.824140 192 192 192
3.086814 12.380535 -62.715181 192 192 192
3.219097 12.911093 -62.601446 192 192 192
3.351135 13.440668 -62.482944 192 192 192
3.482917 13.969219 -62.359684 192 192 192
3.614435 14.496706 -62.231675 192 192 192
3.745677 15.023090 -62.098926 192 192 192
3.876634 15.548329 -61.961449 192 192 192
4.007296 16.072385 -61.819253 192 192 192
4.137652 16.595216 -61.672349 192 192 192
4.267694 17.116784 -61.520749 192 192 192
4.397410 17.637048 -61.364463 192 192 192
4.526791 18.155969 -61.203504 192 192 192
4.655828 18.673507 -61.037885 192 192 192
4.784511 19.189624 -60.867617 192 192 192
4.912828 19.704279 -60.692714 192 192 192
5.040772 20.217433 -60.513189 192 192 192
5.168332 20.729048 -60.329055 192 192 192
5.295498 21.239084 -60.140328 192 192 192
5.422261 21.747502 -59.947020 192 192 192
0.260748 1.086092 -63.990252 192 192 192
0.391097 1.629035 -63.978069 192 192 192
0.521416 2.171854 -63.961013 192 192 192
0.651696 2.714508 -63.939086 192 192 192
0.781926 3.256954 -63.912290 192 192 192
0.912096 3.799153 -63.880627 192 192 192
1.042197 4.341062 -63.844099 192 192 192
1.172218 4.882641 -63.802709 192 192 192
1.302151 5.423848 -63.756461 192 192 192
1.431984 5.964642 -63.705357 192 192 192
1.561708 6.504981 -63.649401 192 192 192
1.691313 7.044826 -63.588599 192 192 192
1.820789 7.584133 -63.522954 192 192 192
1.950127 8.122864 -63.452471 192 192 192
2.079316 8.660975 -63.377156 192 192 192
2.208347 9.198427 -63.297015 192 192 192
2.337210 9.735179 -63.212054 192 192 192
2.465894 10.271189 -63.122278 192 192 192
2.594391 10.806417 -63.027696 192 192 192
2.722690 11.340822 -62.928314 192 192 192
2.850782 11.874363 -62.824140 192 192 192
2.978657 12.407000 -62.715181 192 192 192
3.106305 12.938693 -62.601446 192 192 192
3.233717 13.469400 -62.482944 192 192 192
3.360882 13.999081 -62.359684 192 192 192
3.487791 14.527696 -62.231675 192 192 192
3.614435 15.055205 -62.098926 192 192 192
3.740803 15.581567 -61.961449 192 192 192
3.866887 16.106743 -61.819253 192 192 192
3.992676 16.630692 -61.672349 192 192 192
4.118161 17.153374 -61.520749 192 192 192
4.243332 17.674751 -61.364463 192 192 192
4.368180 18.194781 -61.203504 192 192 192
4.492696 18.713426 -61.037885 192 192 192
4.616869 19.230645 -60.867617 192 192 192
4.740691 19.746400 -60.692714 192 192 192
4.864152 20.260652 -60.513189 192 192 192
4.987242 20.773360 -60.329055 192 192 192
5.109953 21.284486 -60.140328 192 192 192
5.232275 21.793992 -59.947020 192 192 192
0.251260 1.088327 -63.990252 192 192 192
0.376866 1.632386 -63.978069 192 192 192
0.502443 2.176322 -63.961013 192 192 192
0.627983 2.720091 -63.939086 192 192 192
0.753474 3.263654 -63.912290 192 192 192
0.878908 3.806968 -63.880627 192 192 192
1.004275 4.349992 -63.844099 192 192 192
1.129565 4.892684 -63.802709 192 192 192
1.254770 5.435005 -63.756461 192 192 192
1.379879 5.976911 -63.705357 192 192 192
1.504882 6.518362 -63.649401 192 192 192
1.629772 7.059317 -63.588599 192 192 192
1.754537 7.599734 -63.522954 192 192 192
1.879168 8.139572 -63.452471 192 192 192
2.003657 8.678791 -63.377156 192 192 192
2.127993 9.217348 -63.297015 192 192 192
2.252166 9.755204 -63.212054 192 192 192
2.376169 10.292317 -63.122278 192 192 192
2.499990 10.828646 -63.027696 192 192 192
2.623621 11.364150 -62.928314 192 192 192
2.747052 11.898789 -62.824140 192 192 192
2.870274 12.432521 -62.715181 192 192 192
2.993277 12.965307 -62.601446 192 192 192
3.116052 13.497106 -62.482944 192 192 192
3.238591 14.027877 -62.359684 192 192 192
3.360882 14.557579 -62.231675 192 192 192
3.482917 15.086173 -62.098926 192 192 192
3.604688 15.613618 -61.961449 192 192 192
3.726183 16.139874 -61.819253 192 192 192
3.847395 16.664901 -61.672349 192 192 192
3.968314 17.188658 -61.520749 192 192 192
4.088931 17.711107 -61.364463 192 192 192
4.209237 18.232207 -61.203504 192 192 192
4.329222 18.751919 -61.037885 192 192 192
4.448877 19.270202 -60.867617 192 192 192
4.568193 19.787018 -60.692714 192 192 192
4.687162 20.302327 -60.513189 192 192 192
4.805773 20.816090 -60.329055 192 192 192
4.924019 21.328268 -60.140328 192 192 192
5.041889 21.838822 -59.947020 192 192 192
0.241753 1.090478 -63.990252 192 192 192
0.362607 1.635613 -63.978069 192 192 192
0.483433 2.180623 -63.961013 192 192 192
0.604222 2.725468 -63.939086 192 192 192
0.724965 3.270105 -63.912290 192 192 192
0.845653 3.814493 -63.880627 192 192 192
0.966276 4.358590 -63.844099 192 192 192
1.086826 4.902355 -63.802709 192 192 192
1.207293 5.445747 -63.756461 192 192 192
1.327668 5.988725 -63.705357 192 192 192
1.447942 6.531246 -63.649401 192 192 192
1.568106 7.073270 -63.588599 192 192 192
1.688151 7.614755 -63.522954 192 192 192
1.808066 8.155661 -63.452471 192 192 192
1.927845 8.695945 -63.377156 192 192 192
2.047476 9.235567 -63.297015 192 192 192
2.166951 9.774486 -63.212054 192 192 192
2.286262 10.312660 -63.122278 192 192 192
2.405398 10.850049 -63.027696 192 192 192
2.524351 11.386612 -62.928314 192 192 192
2.643112 11.922308 -62.824140 192 192 192
2.761672 12.457096 -62.715181 192 192 192
2.880021 12.990935 -62.601446 192 192 192
2.998151 13.523784 -62.482944 192 192 192
3.116052 14.055604 -62.359684 192 192 192
3.233717 14.586354 -62.231675 192 192 192
3.351135 15.115992 -62.098926 192 192 192
3.468298 15.644480 -61.961449 192 192 192
3.585196 16.171776 -61.819253 192 192 192
3.701822 16.697841 -61.672349 192 192 192
3.818166 17.222634 -61.520749 192 192 192
3.934219 17.746115 -61.364463 192 192 192
4.049972 18.268245 -61.203504 192 192 192
4.165417 18.788984 -61.037885 192 192 192
4.280545 19.308292 -60.867617 192 192 192
4.395347 19.826129 -60.692714 192 192 192
4.509814 20.342457 -60.513189 192 192 192
4.623938 20.857235 -60.329055 192 192 192
4.737709 21.370426 -60.140328 192 192 192
4.851120 21.881988 -59.947020 192 192 192
0.232228 1.092546 -63.990252 192 192 192
0.348320 1.638715 -63.978069 192 192 192
0.464385 2.184759 -63.961013 192 192 192
0.580415 2.730637 -63.939086 192 192 192
0.696400 3.276307 -63.912290 192 192 192
0.812333 3.821727 -63.880627 192 192 192
0.928204 4.366856 -63.844099 192 192 192
1.044004 4.911653 -63.802709 192 192 192
1.159725 5.456076 -63.756461 192 192 192
1.275357 6.000083 -63.705357 192 192 192
1.390892 6.543633 -63.649401 192 192 192
1.506321 7.086685 -63.588599 192 192 192
1.621636 7.629197 -63.522954 192 192 192
1.736827 8.171128 -63.452471 192 192 192
1.851886 8.712437 -63.377156 192 192 192
1.966803 9.253083 -63.297015 192 192 192
2.081571 9.793024 -63.212054 192 192 192
2.196181 10.332219 -63.122278 192 192 192
2.310623 10.870627 -63.027696 192 192 192
2.424889 11.408207 -62.928314 192 192 192
2.538971 11.944919 -62.824140 192 192 192
2.652859 12.480721 -62.715181 192 192 192
2.766545 13.015573 -62.601446 192 192 192
2.880021 13.549433 -62.482944 192 192 192
2.993277 14.082261 -62.359684 192 192 192
3.106305 14.614017 -62.231675 192 192 192
3.219097 15.144661 -62.098926 192 192 192
3.331644 15.674150 -61.961449 192 192 192
3.443936 16.202447 -61.819253 192 192 192
3.555967 16.729509 -61.672349 192 192 192
3.667727 17.255297 -61.520749 192 192 192
3.779207 17.779771 -61.364463 192 192 192
3.890400 18.302892 -61.203504 192 192 192
4.001296 18.824618 -61.037885 192 192 192
4.111888 19.344911 -60.867617 192 192 192
4.222166 19.863730 -60.692714 192 192 192
4.332123 20.381037 -60.513189 192 192 192
4.441750 20.896792 -60.329055 192 192 192
4.551039 21.410956 -60.140328 192 192 192
4.659981 21.923489 -59.947020 192 192 192
4.768569 22.434352 -59.749147 192 192 192
0.222685 1.094531 -63.990252 192 192 192
0.334006 1.641692 -63.978069 192 192 192
0.445302 2.188728 -63.961013 192 192 192
0.556564 2.735598 -63.939086 192 192 192
0.667783 3.282259 -63.912290 192 192 192
0.778952 3.828670 -63.880627 192 192 192
0.890061 4.374790 -63.844099 192 192 192
1.001103 4.920576 -63.802709 192 192 192
1.112068 5.465988 -63.756461 192 192 192
1.222948 6.010984 -63.705357 192 192 192
1.333736 6.555522 -63.649401 192 192 192
1.444422 7.099560 -63.588599 192 192 192
1.554998 7.643058 -63.522954 192 192 192
1.665455 8.185974 -63.452471 192 192 192
1.775786 8.728266 -63.377156 192 192 192
1.885981 9.269894 -63.297015 192 192 192
1.996033 9.810816 -63.212054 192 192 192
2.105933 10.350990 -63.122278 192 192 192
2.215672 10.890377 -63.027696 192 192 192
2.325243 11.428934 -62.928314 192 192 192
2.434636 11.966621 -62.824140 192 192 192
2.543845 12.503396 -62.715181 192 192 192
2.652859 13.039219 -62.601446 192 192 192
2.761672 13.574050 -62.482944 192 192 192
2.870274 14.107846 -62.359684 192 192 192
2.978657 14.640568 -62.231675 192 192 192
3.086814 15.172175 -62.098926 192 192 192
3.194736 15.702627 -61.961449 192 192 192
3.302414 16.231883 -61.819253 192 192 192
3.409841 16.759903 -61.672349 192 192 192
3.517008 17.286647 -61.520749 192 192 192
3.623907 17.812074 -61.364463 192 192 192
3.730531 18.336144 -61.203504 192 192 192
3.836870 18.858819 -61.037885 192 192 192
3.942917 19.380057 -60.867617 192 192 192
4.048664 19.899819 -60.692714 192 192 192
4.154102 20.418066 -60.513189 192 192 192
4.259225 20.934758 -60.329055 192 192 192
4.364022 21.449855 -60.140328 192 192 192
4.468488 21.963319 -59.947020 192 192 192
4.572613 22.475111 -59.749147 192 192 192
4.676390 22.985191 -59.546724 192 192 192
0.213125 1.096432 -63.990252 192 192 192
0.319667 1.644544 -63.978069 192 192 192
0.426185 2.192531 -63.961013 192 192 192
0.532670 2.740350 -63.939086 192 192 192
0.639115 3.287961 -63.912290 192 192 192
0.745511 3.835322 -63.880627 192 192 192
0.851850 4.382390 -63.844099 192 192 192
0.958125 4.929125 -63.802709 192 192 192
1.064326 5.475485 -63.756461 192 192 192
1.170447 6.021427 -63.705357 192 192 192
1.276478 6.566911 -63.649401 192 192 192
1.382412 7.111895 -63.588599 192 192 192
1.488241 7.656337 -63.522954 192 192 192
1.593957 8.200196 -63.452471 192 192 192
1.699551 8.743430 -63.377156 192 192 192
1.805015 9.285999 -63.297015 192 192 192
1.910343 9.827861 -63.212054 192 192 192
2.015524 10.368974 -63.122278 192 192 192
2.120553 10.909297 -63.027696 192 192 192
2.225419 11.448790 -62.928314 192 192 192
2.330117 11.987411 -62.824140 192 192 192
2.434636 12.525119 -62.715181 192 192 192
2.538971 13.061873 -62.601446 192 192 192
2.643112 13.597633 -62.482944 192 192 192
2.747052 14.132356 -62.359684 192 192 192
2.850782 14.666004 -62.231675 192 192 192
2.954296 15.198535 -62.098926 192 192 192
3.057584 15.729908 -61.961449 192 192 192
3.160640 16.260084 -61.819253 192 192 192
3.263455 16.789021 -61.672349 192 192 192
3.366022 17.316680 -61.520749 192 192 192
3.468332 17.843020 -61.364463 192 192 192
3.570378 18.368001 -61.203504 192 192 192
3.672152 18.891583 -61.037885 192 192 192
3.773646 19.413727 -60.867617 192 192 192
3.874853 19.934392 -60.692714 192 192 192
3.975765 20.453539 -60.513189 192 192 192
4.076374 20.971129 -60.329055 192 192 192
4.176673 21.487121 -60.140328 192 192 192
4.276654 22.001477 -59.947020 192 192 192
4.376309 22.514158 -59.749147 192 192 192
4.475631 23.025124 -59.546724 192 192 192
0.203549 1.098251 -63.990252 192 192 192
0.305304 1.647271 -63.978069 192 192 192
0.407035 2.196166 -63.961013 192 192 192
0.508736 2.744895 -63.939086 192 192 192
0.610398 3.293413 -63.912290 192 192 192
0.712014 3.841682 -63.880627 192 192 192
0.813575 4.389657 -63.844099 192 192 192
0.915074 4.937299 -63.802709 192 192 192
1.016504 5.484564 -63.756461 192 192 192
1.117856 6.031412 -63.705357 192 192 192
1.219123 6.577800 -63.649401 192 192 192
1.320297 7.123687 -63.588599 192 192 192
1.421371 7.669032 -63.522954 192 192 192
1.522337 8.213793 -63.452471 192 192 192
1.623186 8.757929 -63.377156 192 192 192
1.723912 9.301397 -63.297015 192 192 192
1.824507 9.844157 -63.212054 192 192 192
1.924962 10.386168 -63.122278 192 192 192
2.025271 10.927387 -63.027696 192 192 192
2.125426 11.467774 -62.928314 192 192 192
2.225419 12.007288 -62.824140 192 192 192
2.325243 12.545888 -62.715181 192 192 192
2.424889 13.083532 -62.601446 192 192 192
2.524351 13.620180 -62.482944 192 192 192
2.623621 14.155791 -62.359684 192 192 192
2.722690 14.690323 -62.231675 192 192 192
2.821553 15.223737 -62.098926 192 192 192
2.920200 15.755992 -61.961449 192 192 192
3.018626 16.287046 -61.819253 192 192 192
3.116821 16.816860 -61.672349 192 192 192
3.214779 17.345394 -61.520749 192 192 192
3.312492 17.872607 -61.364463 192 192 192
3.409953 18.398458 -61.203504 192 192 192
3.507154 18.922909 -61.037885 192 192 192
3.604088 19.445918 -60.867617 192 192 192
3.700748 19.967447 -60.692714 192 192 192
3.797125 20.487455 -60.513189 192 192 192
3.893214 21.005903 -60.329055 192 192 192
3.989006 21.522751 -60.140328 192 192 192
4.084494 22.037960 -59.947020 192 192 192
4.179672 22.551491 -59.749147 192 192 192
4.274531 23.063304 -59.546724 192 192 192
0.193957 1.099985 -63.990252 192 192 192
0.290917 1.649873 -63.978069 192 192 192
0.387855 2.199635 -63.961013 192 192 192
0.484763 2.749229 -63.939086 192 192 192
0.581635 3.298615 -63.912290 192 192 192
0.678462 3.847749 -63.880627 192 192 192
0.775237 4.396590 -63.844099 192 192 192
0.871954 4.945096 -63.802709 192 192 192
0.968604 5.493226 -63.756461 192 192 192
1.065180 6.040937 -63.705357 192 192 192
1.161675 6.588188 -63.649401 192 192 192
1.258082 7.134938 -63.588599 192 192 192
1.354393 7.681144 -63.522954 192 192 192
1.450601 8.226765 -63.452471 192 192 192
1.546698 8.771760 -63.377156 192 192 192
1.642677 9.316087 -63.297015 192 192 192
1.738532 9.859704 -63.212054 192 192 192
1.834254 10.402570 -63.122278 192 192 192
1.929836 10.944645 -63.027696 192 192 192
2.025271 11.485885 -62.928314 192 192 192
2.120553 12.026251 -62.824140 192 192 192
2.215672 12.565702 -62.715181 192 192 192
2.310623 13.104195 -62.601446 192 192 192
2.405398 13.641690 -62.482944 192 192 192
2.499990 14.178147 -62.359684 192 192 192
2.594391 14.713523 -62.231675 192 192 192
2.688595 15.247780 -62.098926 192 192 192
2.782594 15.780875 -61.961449 192 192 192
2.876381 16.312768 -61.819253 192 192 192
2.969949 16.843419 -61.672349 192 192 192
3.063291 17.372788 -61.520749 192 192 192
3.156400 17.900833 -61.364463 192 192 192
3.249268 18.427515 -61.203504 192 192 192
3.341889 18.952794 -61.037885 192 192 192
3.434255 19.476629 -60.867617 192 192 192
3.526360 19.998981 -60.692714 192 192 192
3.618196 20.519811 -60.513189 192 192 192
3.709757 21.039077 -60.329055 192 192 192
